ncols		 300
nrows		 48
xllcorner		 -90.014706
yllcorner		 32.093199
cellsize		 0.033333
NODATA_value		 -9999.000000
93.4 98.8 99.0 97.3 101.0 111.4 106.8 85.3 74.3 80.6 91.9 101.4 102.7 111.7 116.5 112.6 122.1 114.7 105.8 101.5 106.5 124.6 136.0 136.6 140.1 139.1 148.2 142.9 116.4 95.4 87.5 81.7 80.2 89.7 94.8 93.2 82.2 68.6 68.2 70.3 79.3 85.5 80.8 71.8 59.8 52.3 56.2 61.4 67.1 78.5 96.3 103.1 89.6 94.1 94.7 101.0 109.8 117.0 121.3 116.1 133.2 144.7 122.7 134.3 142.3 113.9 113.7 127.5 148.6 159.7 148.1 143.4 159.6 164.9 180.4 194.9 177.7 170.6 138.4 125.3 133.2 109.3 118.4 147.1 147.4 140.5 127.2 120.7 130.9 117.3 133.9 138.6 151.1 171.6 176.8 190.3 174.0 184.0 218.6 216.2 226.0 276.5 298.6 283.1 273.0 255.6 241.7 250.4 254.6 250.4 235.7 199.7 171.8 165.6 166.4 166.7 165.3 166.5 182.2 201.7 226.9 244.4 250.9 253.0 245.5 303.0 351.8 346.6 295.5 236.7 248.8 309.7 321.1 302.4 294.6 293.8 313.0 312.7 297.0 302.0 344.0 364.4 350.2 360.0 366.1 370.3 367.5 351.9 343.4 325.7 323.8 337.8 340.1 321.0 317.4 319.2 312.1 300.7 292.0 278.4 250.4 244.5 249.8 254.6 273.6 283.6 295.0 286.7 272.2 261.9 247.5 238.7 237.4 252.4 259.5 243.9 254.8 259.1 261.3 263.2 236.1 213.8 210.8 228.7 243.0 243.1 230.5 221.4 238.6 239.8 225.9 209.6 204.8 209.6 210.4 185.7 163.2 172.3 167.9 157.2 165.9 158.9 154.1 165.2 168.5 175.2 192.0 201.2 195.9 178.8 159.5 156.4 162.9 160.1 142.1 143.2 140.8 146.8 156.8 157.6 159.0 135.3 120.5 128.6 137.3 126.6 107.3 101.9 103.4 106.3 105.9 102.4 104.0 103.0 109.7 96.3 80.7 85.5 92.5 97.4 112.7 132.0 149.9 165.7 160.9 149.3 151.0 154.7 151.5 154.0 145.6 121.9 122.2 114.5 121.0 140.5 145.6 152.9 150.8 133.3 109.7 107.4 99.7 100.0 95.7 100.3 115.3 96.9 90.6 99.5 100.1 100.1 100.8 97.8 100.3 88.3 81.8 79.1 71.0 67.9 68.2 58.7 37.5 25.1 32.5 40.9 46.1 49.1 48.7 45.8 41.6 40.7 40.2 34.9 31.0 29.6 28.7 30.3 27.9 23.1
79.8 77.4 83.7 83.7 97.4 120.7 115.2 95.7 85.8 84.7 105.3 116.2 100.5 95.0 96.6 102.7 132.1 130.7 127.2 126.5 116.1 134.8 148.4 150.5 148.9 148.7 143.3 126.1 108.1 93.5 88.5 83.7 75.9 72.6 74.7 76.0 78.4 74.1 62.3 66.4 76.1 74.5 75.1 69.0 58.1 52.2 52.5 61.2 70.5 84.4 97.0 88.0 69.9 73.9 93.4 97.0 87.6 97.2 115.0 122.5 125.4 114.7 128.9 154.1 135.0 103.6 120.1 142.0 144.4 152.9 132.6 130.1 155.7 158.6 186.3 192.3 169.7 160.5 152.9 133.7 120.4 138.6 145.1 120.1 111.2 128.8 125.2 112.7 115.7 126.3 161.7 164.9 154.3 167.2 161.1 178.2 191.2 206.8 215.7 233.4 268.7 277.5 293.8 270.3 244.2 230.5 235.0 241.2 272.9 248.2 199.3 188.6 176.7 173.1 171.1 169.8 175.0 182.3 187.7 194.3 232.7 247.1 223.1 244.0 256.3 231.8 255.6 257.1 225.7 222.3 241.9 279.0 290.8 277.3 285.1 285.4 287.2 302.2 305.5 339.1 385.8 397.7 381.6 378.1 368.5 344.9 344.6 343.7 331.3 321.8 331.0 336.4 336.6 337.7 324.0 295.7 271.4 269.8 264.1 246.2 255.4 259.4 256.1 256.0 257.2 268.1 299.2 304.0 286.3 283.0 266.8 254.6 270.6 252.2 230.0 225.4 219.4 226.1 248.2 261.4 259.1 230.1 207.7 228.1 244.9 238.7 219.6 222.5 239.3 240.5 237.7 222.0 194.0 191.4 197.3 188.7 174.3 161.8 163.5 159.5 158.0 147.0 152.9 167.6 166.6 180.7 199.7 204.8 186.4 170.8 169.6 159.3 157.1 158.0 141.8 134.7 141.9 144.3 150.6 160.3 152.7 120.2 106.4 116.4 110.0 104.8 109.4 109.0 115.0 130.6 127.9 111.8 116.2 107.3 87.9 92.1 93.1 88.8 92.9 86.0 91.4 130.3 158.3 147.2 146.5 131.0 133.8 159.6 137.6 133.8 145.2 138.9 125.1 113.0 127.0 128.5 130.3 139.8 138.1 133.6 129.9 130.9 122.0 106.9 91.8 81.7 90.7 100.7 91.7 85.4 97.9 108.3 92.5 84.7 82.0 87.1 84.7 79.0 71.3 52.0 52.7 57.4 50.1 34.3 23.8 27.5 36.5 42.6 43.0 43.8 42.4 41.5 41.5 35.6 33.5 32.1 32.7 32.3 29.2 25.9
95.8 95.9 91.8 96.6 105.2 115.9 124.1 116.8 115.2 98.7 96.0 120.1 119.5 111.7 113.4 116.4 135.2 159.3 150.7 136.9 142.8 143.0 132.9 141.3 139.6 133.0 134.9 137.1 123.1 101.3 91.0 93.7 92.1 84.8 73.9 66.6 68.2 68.0 61.5 63.0 67.7 67.2 69.8 73.5 64.4 52.7 54.4 61.7 65.3 68.5 75.6 78.9 73.5 90.1 102.6 87.0 80.4 85.6 96.8 108.9 117.9 124.0 124.8 132.6 149.9 125.0 111.9 121.0 133.4 134.7 114.6 127.6 148.0 154.9 171.3 177.0 172.4 147.4 127.9 117.8 111.5 111.4 111.2 145.1 168.5 160.5 138.4 112.6 128.3 161.5 160.6 172.2 177.4 170.4 177.7 180.5 187.7 195.7 207.0 224.7 289.7 271.0 235.8 231.9 212.0 226.2 237.0 239.5 232.8 227.1 194.4 177.9 182.3 177.3 157.3 150.5 153.0 163.1 183.7 187.1 200.5 214.4 216.6 295.7 296.5 218.9 196.0 203.2 227.7 270.0 303.0 302.5 282.1 270.9 281.1 278.8 282.0 301.4 321.5 353.7 388.1 370.3 337.8 337.8 350.5 336.3 317.8 316.6 322.6 332.1 347.8 353.7 359.1 361.1 337.7 303.2 271.0 250.8 243.8 268.0 272.2 269.7 277.1 279.7 291.9 294.5 292.6 289.6 291.6 293.5 281.1 272.3 275.4 263.5 241.2 250.0 236.1 222.9 233.0 239.0 248.0 242.8 217.0 210.2 222.6 216.2 212.6 231.2 233.6 220.0 217.8 216.9 211.4 205.1 196.3 187.3 193.5 190.7 178.0 154.2 152.2 149.7 147.8 166.4 180.3 178.7 181.0 195.9 189.4 178.3 176.5 164.6 158.7 147.3 143.5 144.3 140.1 130.4 126.5 128.6 125.2 116.7 129.8 142.3 122.0 121.3 140.9 141.3 136.7 137.3 131.1 121.1 111.7 90.5 66.7 72.1 95.4 101.4 84.8 77.0 112.4 147.3 157.4 129.6 124.1 125.9 105.7 126.2 145.8 136.1 132.5 133.2 131.6 113.5 113.2 120.1 126.8 136.0 123.3 117.9 116.9 122.3 123.5 115.0 110.3 88.5 77.2 85.8 75.7 84.1 93.5 89.7 92.6 79.1 75.0 87.6 94.3 85.9 70.2 62.1 48.0 47.2 51.9 40.5 27.4 23.0 25.5 34.3 38.3 38.1 40.6 42.4 40.2 38.2 40.0 38.6 36.7 32.6 27.5 24.1
88.1 99.5 102.9 100.0 112.9 127.1 134.4 141.9 128.3 115.0 114.9 119.0 125.0 124.0 123.1 135.8 140.3 145.2 144.1 132.6 132.6 137.9 123.9 128.6 135.9 126.4 127.0 140.0 128.7 102.0 90.6 86.5 84.3 80.0 79.2 72.6 67.9 63.4 60.1 61.7 60.3 60.8 64.6 61.9 59.2 54.0 59.5 65.9 60.7 58.7 58.8 64.7 79.5 94.5 94.3 85.5 88.7 90.6 86.0 84.2 102.3 125.3 136.8 134.1 140.0 131.2 106.4 103.2 128.5 137.7 126.9 112.7 124.1 141.9 147.9 159.3 161.1 124.0 119.2 130.5 136.8 134.9 132.4 134.9 121.0 111.6 101.0 110.6 153.5 161.6 174.7 192.2 198.1 204.7 201.1 201.9 185.1 201.5 221.7 240.2 261.8 244.7 224.3 211.1 220.4 239.9 251.7 228.4 211.5 213.0 187.1 170.2 163.0 151.5 144.9 162.2 169.4 164.0 162.9 163.9 192.5 201.4 183.7 189.1 200.1 215.0 216.0 216.9 244.1 283.0 298.9 288.2 275.8 282.0 306.7 315.4 337.8 323.3 317.7 344.5 347.7 327.5 317.9 328.2 328.8 315.9 308.8 314.9 324.7 345.4 347.5 338.5 339.4 320.5 294.5 263.2 238.3 245.9 253.9 273.2 288.4 294.8 297.8 301.1 290.7 273.6 275.8 284.1 274.5 269.2 271.9 265.1 251.0 238.0 233.0 244.2 248.6 225.1 206.2 223.0 229.4 232.8 227.4 216.5 213.2 203.4 208.8 231.5 234.1 212.5 194.4 203.3 207.9 197.4 201.3 208.9 197.4 174.4 169.7 161.3 151.4 151.0 159.2 168.6 178.6 190.2 190.9 197.0 202.2 200.0 185.9 170.3 173.9 162.1 160.3 153.0 158.7 165.0 142.1 145.0 137.1 136.6 138.9 136.9 134.9 128.6 136.9 145.7 134.3 112.3 104.3 100.4 93.7 82.5 69.1 76.2 86.4 75.2 67.9 80.7 120.9 150.6 145.6 124.5 129.1 109.8 91.5 117.0 147.9 151.6 129.3 106.2 110.4 122.7 108.0 97.6 106.0 112.3 116.6 99.9 90.4 100.2 107.3 110.9 103.5 89.2 84.1 73.1 61.7 69.3 77.8 73.1 79.4 78.5 74.3 88.3 84.8 65.7 58.2 53.5 52.1 53.1 49.8 50.7 37.6 24.0 23.9 23.8 26.7 29.7 35.4 37.9 33.2 28.1 28.8 34.0 37.6 30.8 23.8 21.3
91.5 90.7 82.5 85.7 96.5 94.5 101.0 122.6 125.2 135.3 127.6 130.6 131.8 126.8 132.2 134.8 146.9 138.3 126.8 137.6 138.7 132.6 119.1 116.0 122.3 119.8 125.8 133.5 131.8 114.8 97.9 88.3 86.6 88.8 79.1 69.1 81.9 81.3 71.1 68.6 62.1 55.0 52.4 54.0 53.2 52.6 60.9 70.2 63.3 55.2 58.1 65.0 72.0 85.4 99.7 106.7 107.2 110.3 106.7 103.7 113.7 120.9 138.4 138.3 117.4 118.1 103.9 99.8 127.1 133.4 124.3 127.0 123.5 114.7 127.2 148.3 170.5 148.6 136.2 148.3 133.3 111.6 107.1 113.1 122.3 129.5 125.2 127.6 146.2 175.8 202.4 199.1 205.6 196.6 189.1 189.0 185.7 202.0 229.3 236.4 248.9 234.8 207.7 209.9 222.2 247.7 227.6 195.1 190.6 181.9 180.6 167.5 154.1 160.9 156.6 159.0 169.2 172.0 164.1 156.1 170.9 191.1 192.0 226.7 254.6 261.4 302.0 295.4 296.4 297.4 275.3 264.9 261.3 296.2 362.3 377.7 373.4 350.6 330.6 327.1 330.2 314.8 309.3 316.3 329.6 320.8 309.3 314.6 332.1 352.7 342.2 308.9 296.9 272.4 242.4 243.1 244.6 254.7 263.0 277.2 285.3 289.5 298.0 290.1 276.4 270.2 276.8 283.6 266.3 267.7 270.3 259.2 248.6 247.9 235.8 223.1 235.5 219.4 200.9 215.3 216.0 224.4 235.2 209.2 201.8 210.0 214.8 220.2 220.7 215.2 193.6 186.6 197.2 193.9 189.0 189.0 183.2 171.0 157.1 154.8 157.2 144.9 145.1 154.8 167.3 174.5 182.3 193.3 195.4 195.6 182.1 164.1 167.8 177.4 179.3 176.8 174.8 161.2 144.7 159.0 160.0 142.7 142.4 146.0 141.6 135.7 145.8 151.3 135.8 119.3 110.7 106.9 105.2 102.7 85.0 88.1 95.9 97.9 91.7 69.8 74.7 108.1 124.3 90.0 97.4 93.4 85.1 107.1 136.1 152.0 148.4 143.9 133.4 116.0 116.0 100.3 87.8 90.5 98.3 102.7 88.1 82.5 91.5 99.6 101.1 100.3 100.3 87.9 81.8 78.6 66.7 65.7 69.4 69.4 70.4 73.9 66.6 56.3 51.9 48.1 49.1 52.9 53.9 52.7 41.4 28.0 23.4 23.4 25.4 27.8 28.8 29.6 28.8 25.1 25.8 28.1 26.0 20.7 19.7 18.9
75.9 77.5 74.4 79.0 90.6 93.7 94.0 118.2 129.9 129.1 127.6 121.4 115.9 119.1 126.0 130.3 136.7 134.3 139.3 132.3 119.4 114.6 111.2 117.9 130.0 134.9 129.2 131.8 129.0 110.8 92.0 85.1 80.6 75.8 70.9 81.1 103.0 102.9 84.6 74.1 71.9 63.5 56.4 64.3 68.9 58.6 52.8 58.4 57.5 56.2 65.8 86.3 99.5 104.0 115.2 122.1 117.7 114.1 117.9 118.5 104.6 117.1 138.4 150.0 147.5 137.0 105.8 107.0 115.1 117.9 113.3 115.5 112.5 111.1 122.6 122.0 154.0 185.4 157.9 136.6 141.6 122.8 96.8 110.0 124.2 145.5 151.5 147.4 173.9 194.4 199.2 195.9 188.0 174.1 188.4 200.0 198.3 248.5 258.0 231.9 203.4 206.7 209.8 231.2 233.4 187.4 189.4 182.1 168.7 187.2 181.9 159.6 152.4 156.7 171.3 177.8 176.3 185.9 178.2 163.4 180.1 191.4 196.0 265.8 314.0 339.8 429.4 418.5 344.8 322.6 306.2 273.3 281.2 343.6 379.4 401.6 381.9 335.4 321.9 307.8 309.7 306.2 302.9 308.1 315.4 311.1 305.6 322.4 319.4 313.8 320.4 316.2 276.9 235.1 221.6 226.4 230.0 242.9 266.8 287.3 288.8 281.0 286.7 285.2 280.6 273.3 264.6 261.9 254.3 260.2 254.2 239.3 232.9 239.4 245.6 240.8 232.8 210.0 190.3 193.0 201.7 208.7 213.6 197.8 208.6 219.3 213.8 217.8 219.8 209.4 200.8 195.0 177.7 171.2 172.5 168.6 174.4 173.3 166.2 164.4 147.7 133.0 148.6 156.2 169.5 178.9 178.6 186.2 197.4 191.9 177.5 170.7 159.0 160.9 175.9 187.2 179.9 164.3 166.7 174.2 158.1 138.3 147.8 155.6 142.9 140.3 150.0 148.3 144.2 128.5 123.6 124.1 111.1 90.8 88.0 107.3 110.3 107.0 96.4 73.9 68.0 100.6 102.1 88.4 77.6 95.6 130.4 143.4 145.3 140.8 128.5 124.6 124.2 122.1 123.0 117.3 103.2 90.7 84.4 84.9 79.1 85.7 84.8 85.5 87.6 91.6 89.4 86.2 94.3 91.8 79.6 70.1 65.6 62.1 69.3 70.5 62.0 52.3 49.1 49.0 45.7 47.4 50.5 47.2 37.3 31.2 26.8 23.4 24.1 24.3 23.8 25.1 24.4 23.0 21.7 17.6 13.2 10.4 11.5 9.5
93.6 99.3 110.8 121.8 106.5 100.8 115.2 129.9 122.2 121.2 128.3 120.8 116.2 108.1 105.9 118.1 129.3 128.9 121.3 111.8 121.1 130.2 126.9 131.3 133.9 133.9 141.0 145.6 141.1 115.7 95.1 85.9 79.8 76.9 77.8 95.0 97.6 89.7 85.6 79.9 73.1 63.1 69.5 73.8 68.9 60.7 52.3 51.0 52.2 57.5 78.0 95.1 98.8 102.5 105.1 108.9 109.0 105.6 116.7 106.6 97.4 106.2 122.3 126.0 141.8 123.9 87.2 103.7 109.6 111.8 104.2 97.6 101.8 116.7 135.2 124.4 124.9 142.1 155.5 137.9 133.1 112.1 110.0 140.5 134.0 142.0 139.5 139.7 147.2 153.1 179.6 201.8 194.5 178.4 182.8 209.3 231.4 260.4 219.4 177.7 193.6 211.2 236.3 224.3 193.0 167.7 165.3 172.7 163.5 168.0 159.9 167.6 162.0 168.1 191.4 190.2 191.5 195.7 181.4 172.5 185.5 189.7 210.5 283.9 323.4 489.2 461.3 338.8 330.5 309.3 310.7 286.2 296.4 336.1 342.6 364.9 339.5 312.2 312.0 294.1 289.3 299.5 305.3 317.6 331.2 319.9 315.5 323.5 320.6 280.9 274.4 261.7 250.3 237.3 223.5 232.3 241.7 250.3 269.0 291.3 290.2 272.2 281.9 285.5 272.3 269.3 275.5 260.8 246.8 261.0 267.6 250.9 247.4 260.7 267.4 249.1 222.3 207.2 196.1 193.9 190.7 181.6 197.2 186.3 192.6 210.9 208.0 215.0 219.0 198.4 193.4 194.0 178.0 161.6 168.4 166.7 161.9 167.4 162.1 161.4 148.0 138.7 147.8 153.2 152.7 162.2 179.5 178.3 175.5 197.3 200.5 186.4 174.0 158.0 152.3 166.9 183.2 184.9 176.2 177.2 162.9 150.9 157.6 157.1 152.1 148.2 153.8 164.4 150.4 128.5 129.6 125.1 120.4 114.5 120.3 118.7 121.4 118.6 97.4 87.2 60.3 48.6 61.5 76.1 108.8 122.9 104.4 109.7 130.5 133.8 113.1 107.5 97.3 104.7 119.6 114.0 104.0 98.6 98.7 84.2 71.0 71.4 66.2 69.4 75.5 78.3 77.0 75.7 78.0 84.8 83.7 82.3 85.7 66.1 56.5 58.8 55.5 52.6 50.1 47.7 45.6 44.9 45.7 45.7 43.3 41.2 34.6 27.8 25.4 23.7 23.0 23.0 23.0 23.0 23.0 15.6 14.3 14.7 12.1 11.3
100.7 98.0 102.4 109.6 116.3 119.5 127.3 122.2 114.3 112.4 104.9 108.0 115.7 106.0 98.2 111.6 110.3 104.0 104.4 113.6 114.9 116.2 115.0 115.3 120.8 126.5 133.8 141.6 134.0 108.3 92.9 88.0 83.3 84.6 89.8 99.1 110.1 103.4 82.4 69.9 64.0 66.9 75.7 76.0 64.1 54.3 49.7 48.5 52.2 62.5 78.7 94.6 105.6 114.9 107.6 114.8 106.0 91.8 98.3 103.7 98.2 88.4 102.3 119.8 128.5 122.5 94.5 89.2 96.7 96.1 89.2 98.3 109.2 115.4 124.1 120.6 132.4 119.6 115.3 132.2 146.0 137.5 127.4 145.5 150.0 145.2 138.6 129.7 156.2 184.0 173.2 176.7 185.6 192.9 219.6 218.1 244.1 236.4 178.3 163.4 186.4 259.9 279.8 241.3 219.5 181.6 175.5 175.0 147.6 146.7 151.9 155.6 151.5 158.7 183.4 221.4 208.6 191.4 190.7 197.7 207.4 221.1 240.2 266.9 313.4 496.8 453.8 331.2 308.3 306.7 313.8 279.9 282.2 335.4 334.4 321.7 312.5 285.4 273.8 295.9 320.8 329.9 331.6 324.9 327.2 333.1 328.4 317.9 299.9 261.5 233.9 226.1 223.9 232.0 242.0 260.6 271.6 271.5 281.7 289.8 284.3 270.6 270.6 278.1 279.2 266.8 271.0 264.8 245.8 253.7 273.2 277.1 272.9 263.1 257.1 257.7 241.2 231.3 230.5 225.3 212.5 195.2 178.7 169.7 194.4 205.6 204.3 215.7 209.1 196.4 184.0 186.0 182.2 169.6 170.3 169.6 163.9 162.4 167.7 171.0 165.8 151.8 143.0 143.6 143.1 147.6 160.7 162.5 163.6 178.1 195.3 197.3 174.5 156.9 148.0 152.8 167.6 167.7 163.7 167.1 175.4 162.6 154.2 158.2 151.9 154.6 148.2 152.6 144.9 128.5 132.4 143.2 129.8 121.1 126.7 116.4 113.0 101.5 79.6 58.8 42.4 37.6 38.2 55.7 98.2 100.1 95.9 108.6 125.2 132.2 118.1 106.7 104.6 107.1 112.4 114.3 104.8 95.4 96.5 91.3 83.6 76.8 65.2 59.9 61.1 67.5 73.9 68.4 66.9 75.8 77.8 84.2 83.9 64.2 54.6 55.4 53.9 51.8 49.0 47.8 46.3 41.5 40.8 43.4 39.9 37.9 39.1 39.6 32.4 25.3 23.6 23.2 23.2 23.0 23.0 20.4 18.8 18.8 19.8 19.6
98.8 105.1 107.5 95.5 104.3 121.8 128.6 113.8 111.9 114.4 101.4 96.6 96.0 94.0 97.6 105.4 107.2 116.3 126.6 128.7 129.2 123.8 120.4 132.6 145.5 145.0 138.6 141.7 128.4 110.4 105.8 99.4 90.9 87.4 88.3 93.7 96.6 98.2 92.2 77.4 69.4 72.7 73.0 63.9 58.6 57.9 52.9 47.8 49.5 55.8 63.8 79.7 95.1 101.3 93.5 99.1 97.5 80.1 94.4 100.2 86.8 90.2 101.0 112.0 126.2 126.1 99.3 90.0 103.3 120.1 109.5 96.6 95.8 103.4 115.9 139.2 164.3 164.1 143.2 126.0 155.7 166.2 162.1 184.8 180.8 160.9 172.1 156.7 149.7 192.4 180.6 158.4 216.7 230.7 269.4 251.6 184.2 160.9 154.8 186.5 249.4 277.8 230.9 289.9 260.8 177.0 187.5 170.0 143.0 132.1 155.8 169.2 157.0 186.5 187.3 167.3 172.3 207.3 220.9 205.5 218.5 268.5 311.6 323.3 369.7 425.2 373.8 352.1 350.4 320.5 311.1 291.3 281.1 303.2 299.3 291.3 287.2 277.0 285.3 312.6 335.4 358.5 366.3 339.4 307.5 305.5 310.0 307.7 260.8 213.9 240.1 253.9 249.2 249.8 252.3 255.9 269.5 278.9 269.8 270.1 263.5 251.8 252.9 263.8 265.5 258.7 265.9 268.4 250.0 247.3 262.3 274.8 275.2 269.9 265.4 262.4 246.2 232.5 224.6 223.3 220.9 203.1 185.7 173.0 177.8 184.2 193.4 207.0 204.8 183.9 160.5 166.8 175.9 161.6 159.6 153.3 152.0 161.4 171.9 171.8 159.9 147.5 143.2 148.7 147.5 146.4 152.6 149.3 150.4 163.4 166.2 172.7 170.7 161.2 161.7 153.5 146.7 152.6 152.8 150.4 158.2 155.1 143.0 140.1 138.9 141.9 132.6 141.1 151.6 146.7 152.4 154.8 138.9 132.2 134.4 129.5 120.1 95.9 106.8 83.4 41.9 35.6 36.4 53.8 91.5 91.0 84.8 102.9 117.5 123.0 109.9 88.2 90.3 91.3 92.7 107.0 110.3 102.8 92.2 85.7 80.4 84.2 77.0 66.0 61.0 57.8 60.0 63.9 66.8 72.6 68.9 65.1 60.9 51.3 50.7 53.8 53.3 51.1 49.4 48.1 45.9 39.3 34.7 35.5 34.9 33.9 34.9 37.7 39.3 34.5 27.2 25.2 24.6 23.4 23.3 23.8 25.4 25.4 24.2 22.5
103.7 117.8 117.8 108.9 115.4 121.9 120.9 105.0 103.0 115.4 101.9 90.2 105.1 106.0 108.6 109.6 110.9 122.7 131.4 124.2 127.9 137.6 140.6 152.3 177.6 172.2 141.4 123.9 119.8 112.8 101.3 93.7 89.4 85.4 82.3 83.7 90.2 99.7 100.0 91.1 85.1 76.2 69.5 68.0 64.2 59.7 53.2 49.2 47.7 50.3 56.8 76.2 89.8 84.4 79.6 86.7 89.9 86.9 95.2 88.2 79.4 93.2 103.7 108.5 117.6 108.0 98.1 90.7 98.5 120.0 110.4 94.2 80.0 91.0 128.2 144.5 157.3 115.1 121.2 171.0 164.9 152.1 144.1 156.2 182.2 167.4 172.4 166.3 146.2 160.9 177.8 185.2 203.8 220.5 236.2 189.9 148.8 157.1 175.5 199.5 226.3 227.1 228.2 198.8 164.4 160.4 156.5 145.2 132.6 128.9 156.6 162.1 156.6 176.1 164.0 166.3 176.9 177.3 214.6 233.2 257.1 314.3 343.7 343.8 344.8 339.5 356.3 351.7 316.0 312.8 314.8 298.4 265.3 286.8 280.1 257.9 262.4 277.1 296.3 321.0 362.2 386.2 370.7 343.5 316.7 284.9 270.8 252.0 223.1 228.2 251.2 248.6 247.0 249.5 249.4 267.0 281.4 272.5 265.7 268.3 264.3 255.8 250.9 251.8 254.0 254.8 263.3 265.2 252.2 245.1 248.2 262.1 250.1 250.9 259.0 247.0 244.7 230.5 214.5 207.8 197.1 186.0 188.1 178.8 169.0 180.2 186.9 204.7 210.9 188.5 164.3 161.7 177.5 173.5 165.5 156.5 145.0 154.8 165.5 170.7 174.5 162.0 158.3 148.7 126.0 121.9 138.5 143.0 132.4 135.7 151.7 168.4 178.8 171.0 152.0 132.8 133.5 143.9 152.6 148.8 146.0 153.4 161.9 147.8 130.5 125.5 126.4 127.0 119.2 130.4 135.5 125.1 119.1 124.2 140.6 112.8 100.0 104.5 105.5 75.7 51.9 43.4 35.0 37.8 59.8 68.8 87.1 101.9 101.6 111.6 102.7 75.3 80.4 91.0 89.9 97.7 92.8 91.5 98.8 96.9 94.7 85.3 76.6 79.7 78.5 70.5 58.7 52.7 52.3 54.0 56.2 55.1 52.4 46.8 42.6 46.9 50.7 49.8 46.8 44.4 43.0 39.7 32.5 30.5 30.0 28.9 31.5 35.0 36.1 34.3 31.1 28.8 27.2 25.2 24.8 25.1 24.4 23.4 23.0 23.0
97.6 112.7 116.9 123.0 125.4 111.6 109.8 102.6 97.0 94.6 90.9 100.3 126.7 126.1 110.2 111.3 121.0 134.2 147.8 139.5 134.6 150.3 161.0 167.7 168.7 174.3 155.3 117.7 106.9 112.6 106.7 91.9 84.6 80.4 79.9 79.5 80.8 86.2 88.2 89.9 89.5 84.0 74.1 66.1 73.4 74.8 64.3 55.1 48.8 46.7 47.4 66.9 83.4 84.2 82.3 72.1 77.4 90.9 88.1 77.0 78.2 82.2 84.8 90.0 118.5 118.8 109.2 88.1 90.2 111.2 113.9 110.3 94.9 87.3 98.8 125.0 145.9 100.4 116.2 156.4 168.9 159.1 154.7 168.3 188.4 188.4 171.0 170.7 174.7 169.4 166.7 167.4 174.4 185.4 184.7 161.9 172.2 193.8 204.7 216.4 211.1 183.0 169.0 163.0 165.4 168.2 148.2 136.1 130.8 125.6 137.0 142.2 135.8 154.5 168.9 177.5 202.2 231.2 277.7 278.1 265.6 351.0 348.7 343.4 363.8 357.1 345.7 325.4 312.5 328.2 318.7 279.3 259.0 256.5 255.7 267.1 280.3 280.7 304.0 340.9 397.5 407.8 352.8 321.2 308.7 286.5 243.3 216.3 231.6 242.0 243.7 237.9 238.8 240.8 241.5 253.9 279.8 282.2 259.9 255.8 268.7 271.1 261.2 251.1 245.6 256.0 263.5 250.2 234.4 236.9 252.3 261.6 245.9 231.5 245.4 243.6 233.0 230.8 215.8 203.6 205.0 205.7 190.1 171.6 167.9 170.0 171.9 198.4 209.8 179.2 151.3 146.1 157.3 169.6 171.5 155.4 153.6 159.1 158.3 166.9 176.4 162.6 160.1 173.4 161.5 126.2 120.7 130.2 125.1 129.7 143.2 150.0 159.4 160.5 152.3 147.1 138.5 129.7 135.1 141.2 138.0 139.9 153.2 149.9 134.4 128.9 125.7 118.4 120.6 113.0 124.4 139.1 124.3 125.0 136.7 120.6 97.3 81.4 68.9 60.9 66.3 51.3 34.4 33.4 38.1 44.1 73.7 94.7 94.0 96.9 80.5 83.7 92.1 90.6 88.5 89.7 86.2 83.2 87.7 86.1 87.2 88.7 84.5 80.2 76.1 72.2 69.8 68.9 55.6 44.2 46.3 48.4 45.7 40.1 37.9 44.4 48.7 46.6 45.0 42.3 37.9 34.8 32.2 28.4 25.7 26.0 28.3 31.6 33.3 31.2 27.8 26.2 26.6 26.6 26.1 25.4 24.3 23.4 23.0 23.0
89.0 94.6 104.2 116.2 120.1 111.4 104.7 109.3 97.3 87.3 97.7 116.0 135.9 133.3 121.4 117.0 114.2 118.8 133.7 145.6 153.9 160.3 163.2 161.1 165.4 173.9 150.5 122.2 120.6 114.7 98.0 89.8 87.5 81.3 78.2 73.5 71.6 76.8 76.6 77.3 80.3 85.1 78.2 75.1 77.9 72.5 65.1 61.3 57.7 51.6 44.1 50.2 69.2 67.6 82.1 103.0 105.4 93.8 74.8 76.7 93.7 92.2 87.6 88.1 105.2 118.0 115.4 86.8 78.8 100.2 101.8 103.2 109.4 103.2 100.6 112.1 135.4 105.1 116.7 144.6 168.2 197.5 201.8 183.4 170.7 175.9 176.2 171.6 193.3 189.1 166.8 160.0 177.9 168.4 145.3 156.6 178.4 254.0 251.6 200.7 188.7 176.3 169.0 161.9 151.1 144.2 133.5 132.8 133.8 129.9 129.8 139.2 143.7 162.4 174.3 177.0 225.7 298.8 367.9 333.2 294.8 341.6 353.3 382.3 400.3 385.7 341.3 315.0 321.6 305.3 287.4 271.4 250.5 249.9 280.6 276.9 269.3 292.7 320.5 362.8 385.1 375.8 342.6 303.5 270.8 253.3 227.7 209.6 230.6 241.5 252.6 233.6 218.3 226.8 233.6 248.2 275.7 283.3 260.7 250.2 262.9 273.0 273.1 263.4 242.5 229.6 241.4 240.2 235.2 249.6 258.4 266.4 262.7 248.8 229.1 218.6 211.0 205.8 220.2 218.8 205.5 197.7 189.2 180.1 173.3 173.8 178.2 190.3 191.0 181.7 171.3 166.4 151.1 144.4 141.9 144.6 153.4 147.6 151.6 151.0 157.7 158.6 148.1 140.6 132.6 117.0 117.7 123.1 129.7 141.9 149.4 159.2 164.1 160.6 151.1 150.8 136.5 122.9 131.0 137.6 132.0 134.7 148.9 158.7 160.5 157.4 152.4 127.0 102.1 95.7 106.9 106.8 102.3 122.5 139.1 130.9 121.1 118.7 100.8 89.4 83.9 60.5 45.3 36.4 33.1 41.6 50.4 72.3 78.3 76.8 65.5 76.9 78.6 76.6 79.5 81.2 83.5 77.4 74.5 71.6 76.7 77.8 75.0 71.9 66.4 68.9 69.7 65.9 58.0 48.4 42.7 40.5 40.9 39.2 38.4 42.5 45.4 43.7 42.9 42.2 40.2 37.7 35.6 33.1 28.4 24.8 25.6 27.9 27.6 25.8 25.2 24.9 26.6 27.5 26.3 25.1 23.7 23.0 23.0 23.0
104.1 106.0 108.8 114.9 110.3 110.8 106.6 96.8 88.4 94.2 112.6 125.3 128.3 117.3 117.1 127.6 129.6 136.1 140.6 149.6 151.9 147.2 152.0 159.9 172.0 164.7 149.1 146.8 143.8 117.7 106.1 101.5 90.5 84.0 78.3 73.6 68.0 65.9 66.4 69.9 86.7 93.2 83.8 77.6 71.7 67.6 63.3 60.1 60.0 53.3 44.6 43.1 64.1 76.4 89.4 104.4 105.7 82.8 70.6 80.9 94.1 94.7 89.3 92.9 103.9 111.6 91.2 70.8 88.2 82.1 77.9 89.0 97.6 115.9 112.3 85.3 97.9 91.8 108.9 130.1 155.7 190.6 186.8 182.8 174.4 177.3 190.6 181.0 164.6 156.0 173.3 179.6 168.7 151.4 146.0 143.7 187.2 242.5 222.0 189.9 182.1 166.7 163.9 164.0 158.3 158.7 140.5 125.2 130.8 133.8 130.9 131.1 136.3 154.1 182.7 203.1 224.7 377.2 374.4 281.1 325.1 383.5 366.1 340.5 338.5 328.8 311.7 306.7 292.1 260.3 247.8 243.3 249.4 265.3 292.5 285.1 276.9 306.0 339.9 368.6 372.8 356.1 304.3 259.4 237.0 223.3 222.0 216.4 235.8 241.0 234.2 225.9 219.1 225.4 244.4 252.1 259.8 262.7 251.6 257.0 264.2 263.3 267.0 255.4 239.4 235.3 243.7 245.6 247.6 254.3 255.7 269.1 270.6 256.6 243.4 236.6 223.4 204.4 207.7 215.6 211.9 203.2 197.6 194.7 165.0 155.7 160.8 162.4 187.6 198.8 180.2 171.9 166.5 153.9 137.1 138.4 150.9 134.1 131.9 140.2 144.1 138.7 123.1 114.5 114.0 119.4 150.5 150.9 141.4 152.5 156.8 155.8 155.0 151.1 137.0 135.6 126.1 123.1 135.7 139.8 137.1 134.4 139.3 141.8 147.9 149.2 144.3 127.4 127.1 133.4 122.5 111.7 110.4 121.9 130.3 111.7 104.4 106.2 80.5 82.1 90.4 85.1 83.0 55.6 31.6 30.7 35.7 45.7 57.2 76.7 85.5 87.0 89.8 79.1 67.2 74.3 77.5 72.8 76.3 76.3 72.7 74.2 76.1 71.8 62.3 62.6 61.9 55.8 48.9 46.5 45.9 41.3 37.2 35.3 35.2 38.6 42.2 42.7 40.7 38.4 37.2 35.2 33.7 31.3 27.3 22.8 21.6 22.5 23.5 20.6 22.5 24.9 26.9 28.0 25.8 23.3 22.3 22.7 23.0 23.0
97.7 111.3 119.3 123.4 116.4 106.3 113.1 104.0 90.5 98.1 101.4 97.7 116.7 118.8 109.8 127.3 147.1 152.0 155.3 155.2 149.3 147.6 151.4 162.3 166.7 167.6 151.0 134.6 129.5 132.4 143.7 126.7 111.1 103.0 88.3 80.7 75.5 72.5 65.7 64.2 79.0 86.7 82.3 79.8 79.0 77.3 72.2 65.6 62.2 54.7 45.4 38.1 45.7 60.1 73.8 84.7 86.3 69.7 71.7 76.6 77.3 78.4 77.8 84.6 92.0 97.3 80.4 76.8 87.2 79.9 78.2 73.8 69.5 82.0 81.1 67.0 81.6 109.2 129.4 143.5 150.7 151.6 165.9 173.7 178.3 178.0 181.5 177.1 156.8 139.4 170.8 172.0 153.4 169.7 161.3 145.8 175.7 219.0 227.3 213.4 197.7 183.7 173.3 154.1 135.5 136.5 135.6 130.0 159.7 193.4 167.4 145.7 143.2 164.1 177.4 180.6 217.5 344.7 353.0 286.7 297.3 319.6 325.3 315.7 309.5 321.7 323.2 314.9 283.4 255.4 238.0 222.8 239.0 261.8 256.1 272.3 296.5 312.5 350.0 340.7 316.3 290.8 277.9 268.5 261.1 260.0 239.4 227.5 231.9 231.8 219.2 209.3 214.1 222.9 230.6 241.7 249.0 266.2 270.1 251.7 241.8 236.8 245.1 252.3 239.1 229.4 228.4 233.2 245.0 249.8 254.9 271.8 279.2 262.4 247.8 229.8 208.7 204.9 205.7 201.4 200.0 184.3 170.1 165.3 154.9 137.8 140.0 171.1 183.5 178.8 171.7 173.3 166.6 166.8 156.4 137.5 140.4 126.5 121.6 137.3 127.9 120.8 126.1 125.2 119.9 136.6 156.2 156.0 149.1 144.6 147.1 148.5 152.1 153.7 139.9 141.2 137.3 114.0 115.9 128.8 136.9 126.5 118.2 118.3 134.0 151.3 148.8 142.0 139.7 129.0 120.1 116.7 98.2 99.7 113.9 110.1 92.2 73.3 75.4 87.1 88.6 74.0 57.3 50.9 42.2 36.2 35.2 40.1 41.8 62.8 84.5 87.2 82.3 71.3 63.4 67.3 71.9 64.6 65.0 70.0 60.0 61.7 67.2 67.5 68.8 62.3 58.0 54.4 49.3 45.5 44.0 45.2 42.9 37.5 34.1 35.2 38.0 39.5 36.3 34.8 35.5 34.3 30.6 28.4 26.9 24.7 23.8 21.5 20.6 19.5 23.0 27.5 28.7 27.5 24.4 20.4 19.2 21.6 23.0 22.7
102.1 110.6 109.0 111.6 114.9 103.7 98.0 89.3 99.8 111.6 103.5 99.8 118.4 126.7 122.7 137.5 145.4 149.8 149.6 143.1 142.8 142.5 152.3 161.0 158.1 168.7 170.9 152.6 138.4 121.7 133.5 152.4 152.2 124.9 95.7 86.1 81.7 75.6 66.2 63.6 74.5 78.2 76.5 72.8 70.4 74.2 72.7 71.0 69.5 60.8 49.4 37.2 40.7 66.3 87.5 89.1 90.1 71.3 57.8 70.6 73.3 77.4 83.3 91.5 98.7 91.9 73.0 84.8 92.4 77.0 52.8 43.9 50.8 55.4 73.0 101.3 107.3 95.7 117.9 135.3 132.9 145.6 151.3 179.2 193.0 177.6 176.6 175.3 148.5 133.9 130.8 143.5 176.2 186.4 189.7 172.2 165.4 187.1 204.6 196.5 174.6 176.5 172.5 157.6 138.5 132.6 137.4 145.8 157.3 232.8 212.5 152.2 150.6 148.2 164.6 210.9 219.7 263.3 293.2 275.8 280.9 277.3 269.5 282.6 287.9 292.8 298.8 297.9 290.7 268.4 257.5 244.3 230.3 224.3 226.8 255.9 278.3 306.6 307.0 288.1 277.4 258.7 252.0 257.0 245.3 235.9 242.6 222.1 208.7 220.6 217.8 225.3 242.7 244.2 245.0 243.9 246.5 266.2 275.3 266.9 251.9 239.1 235.5 242.1 241.8 231.1 224.8 228.8 245.7 263.5 282.6 281.1 261.3 253.0 244.0 234.3 221.9 208.3 190.0 184.2 197.0 190.9 170.9 151.8 143.1 134.0 153.5 172.3 171.6 167.7 178.5 174.8 153.0 157.4 159.8 156.3 146.8 124.7 120.9 133.1 130.9 114.8 112.0 122.5 130.2 140.6 168.5 185.3 166.7 155.7 139.3 129.2 136.6 148.5 143.2 141.0 130.2 116.7 120.0 137.2 124.4 118.3 116.5 118.8 134.9 132.1 128.9 130.2 132.1 123.7 116.0 117.6 107.8 102.5 102.3 97.5 93.4 88.1 74.3 81.6 77.5 75.1 70.8 55.2 59.4 65.2 44.6 34.8 44.7 59.9 71.0 78.3 83.1 80.6 69.3 57.6 61.4 68.5 61.5 59.7 58.7 63.6 67.1 63.7 68.5 69.2 62.2 56.1 49.2 45.7 41.6 41.2 42.9 40.9 36.1 34.0 34.4 35.9 36.5 34.9 32.7 31.1 31.6 31.2 24.9 22.6 25.3 26.6 26.2 23.4 24.7 26.8 26.0 23.9 20.0 16.9 17.8 21.3 23.3 21.0
106.3 101.9 97.0 104.7 114.5 104.2 86.7 88.4 103.9 112.1 113.8 119.1 116.2 124.4 142.7 152.3 144.4 140.9 138.2 141.8 158.4 161.0 158.7 160.7 165.3 163.9 161.8 150.3 135.5 135.8 142.6 142.7 147.3 130.2 102.6 88.1 76.3 69.0 63.6 57.6 59.3 70.2 72.5 66.6 66.6 69.7 74.0 68.0 62.5 62.5 53.6 42.0 42.8 58.6 79.9 85.7 75.6 59.7 71.5 77.2 64.8 76.4 94.3 86.3 87.7 76.3 62.2 80.5 81.7 54.6 40.3 42.5 49.2 59.7 74.3 104.5 105.8 94.2 123.1 138.2 142.5 154.4 156.3 172.2 177.2 165.7 172.6 181.0 161.0 136.6 144.3 175.2 183.8 204.8 201.4 166.4 162.3 171.1 191.9 186.3 169.6 164.6 197.5 175.1 131.0 135.7 141.9 163.4 176.4 170.3 169.8 172.6 175.8 189.1 215.3 239.6 239.7 253.9 261.1 289.3 325.2 301.8 290.2 313.1 302.2 260.7 240.9 274.3 308.6 315.4 310.4 278.9 237.7 229.9 259.6 284.5 294.4 288.4 258.0 249.6 255.9 241.6 233.0 241.4 246.0 244.1 245.2 233.6 212.5 212.0 224.9 225.3 213.6 217.9 239.6 256.1 262.7 264.5 260.3 268.4 265.0 248.7 232.5 230.2 233.7 232.1 235.9 247.7 261.3 264.5 266.1 261.2 255.5 249.4 246.7 240.5 216.2 197.8 188.5 179.3 172.0 176.9 186.6 177.5 158.5 132.1 139.3 159.6 163.2 156.9 165.5 176.3 165.3 156.3 152.6 139.6 131.2 125.0 118.1 117.3 111.5 112.9 111.5 109.6 115.4 129.8 151.4 169.4 171.7 154.3 136.6 120.5 129.1 148.8 146.6 138.2 133.6 114.6 97.9 112.3 126.9 112.8 95.4 115.7 131.6 116.7 120.8 122.2 118.7 117.3 112.7 112.1 99.3 96.1 93.8 79.2 72.3 79.6 79.5 81.8 79.5 74.1 76.2 83.8 69.0 61.0 48.6 30.7 34.0 43.6 57.8 64.1 63.8 73.0 74.4 55.6 52.0 65.7 72.6 70.9 65.7 60.5 56.4 52.9 56.7 56.1 51.5 49.4 41.7 40.2 40.9 37.0 37.8 41.5 41.9 37.2 31.1 29.1 31.6 31.6 30.1 28.0 27.1 27.4 24.8 24.3 26.6 27.5 25.6 26.6 21.3 18.4 22.5 21.8 16.1 15.1 19.3 22.7 24.2 18.7
82.2 93.4 98.9 99.7 97.7 92.6 84.5 88.5 101.3 115.7 121.3 118.6 130.9 136.0 144.4 151.4 138.8 133.8 138.6 149.4 156.9 160.3 159.2 157.5 170.6 170.8 161.5 167.6 165.2 152.2 150.2 147.9 150.4 157.5 138.0 101.0 84.3 79.2 71.8 61.1 55.1 62.2 65.3 66.8 66.9 67.8 72.0 69.5 60.1 58.8 54.6 45.3 42.0 46.3 62.8 67.8 57.0 54.9 82.2 95.7 86.4 84.9 75.6 65.7 61.3 62.1 72.4 86.0 92.3 67.7 43.4 40.7 41.2 66.0 96.3 114.2 114.4 105.8 112.1 127.8 136.6 136.4 141.5 155.1 153.3 165.1 164.5 167.0 162.6 153.7 179.5 201.5 226.3 196.7 151.2 152.6 158.8 162.5 177.7 174.9 171.8 170.4 165.1 146.3 145.8 136.9 121.9 127.0 134.6 157.0 186.7 196.2 200.1 237.1 259.7 273.5 277.3 266.1 247.7 254.1 277.5 266.0 270.7 269.6 261.3 251.6 255.6 295.4 319.3 316.3 301.1 262.7 217.7 226.0 231.9 231.6 235.4 237.2 239.8 250.7 252.4 232.9 223.7 233.9 246.1 231.9 223.4 214.6 203.7 218.3 227.2 225.2 218.4 228.2 243.7 240.6 248.5 264.5 252.3 247.3 260.2 265.2 254.0 232.4 219.9 227.5 236.9 244.9 269.5 277.0 263.6 249.0 243.6 249.1 243.0 221.3 214.8 214.3 206.3 185.5 167.9 167.6 159.1 152.8 146.9 127.6 137.5 150.9 142.0 149.7 160.4 159.0 148.8 141.8 136.8 137.9 137.8 130.3 118.9 128.9 125.0 124.2 121.7 106.3 108.6 127.6 149.9 163.5 166.2 156.4 131.0 106.2 125.8 143.6 146.8 136.6 128.4 121.5 101.5 92.3 103.3 127.0 119.6 116.6 125.8 119.7 119.2 112.4 109.6 116.8 116.4 114.2 111.1 114.3 116.0 106.9 89.5 84.9 84.3 72.6 76.7 86.3 85.4 84.2 67.5 63.3 59.6 38.5 31.8 33.2 34.5 44.3 62.6 82.0 82.8 73.4 57.6 59.3 67.8 66.5 66.2 65.3 65.3 50.5 43.2 49.9 50.9 47.4 42.6 38.4 39.0 32.5 33.0 39.9 39.2 37.3 36.4 31.9 26.2 27.1 28.9 28.0 24.6 22.5 22.8 25.6 29.3 29.3 26.7 19.4 14.4 17.1 21.3 18.1 12.2 16.0 23.6 26.6 22.0 13.0
82.0 92.0 109.3 106.4 97.6 87.7 83.0 88.4 107.2 114.4 105.2 111.4 143.9 146.0 134.1 140.3 141.1 153.7 167.3 171.0 175.7 169.5 151.7 153.3 174.1 168.2 151.9 162.1 164.9 153.5 146.2 146.3 150.6 158.6 147.1 113.0 88.8 78.4 72.8 63.5 60.2 57.4 55.5 58.2 57.4 57.5 63.4 66.7 62.8 57.0 54.3 50.8 43.6 40.7 44.5 50.0 48.3 51.1 80.1 95.7 77.3 62.1 60.3 71.5 74.3 77.3 78.1 77.1 75.0 66.8 49.3 38.3 39.2 60.7 86.4 94.4 88.7 92.2 91.5 103.0 117.8 124.6 141.6 139.2 125.3 146.1 153.9 160.9 154.7 154.2 185.2 186.2 188.8 164.0 144.5 167.1 171.0 159.5 169.0 175.4 163.9 158.1 155.4 145.5 147.1 138.0 132.2 142.9 166.8 192.3 214.0 228.9 233.4 237.8 259.1 259.1 251.8 238.2 236.1 249.3 253.7 226.8 211.6 235.5 253.7 252.9 279.8 299.0 277.9 268.9 269.5 253.2 216.7 206.2 219.6 211.7 225.9 246.0 245.3 249.2 235.7 219.9 217.3 225.5 239.0 225.1 213.3 210.3 204.9 213.3 226.6 238.0 236.5 236.9 242.6 248.0 265.6 265.9 244.5 232.7 238.3 241.5 241.0 242.3 227.4 219.3 230.3 238.8 245.7 246.0 260.8 258.6 232.5 226.2 233.2 227.7 214.7 196.3 197.2 198.1 187.0 161.4 150.0 142.8 130.0 128.7 136.7 142.8 131.9 136.9 159.5 172.9 166.3 150.5 145.3 156.6 148.3 139.6 138.7 144.1 131.5 121.9 118.2 97.5 96.5 130.3 131.5 136.8 150.2 142.2 129.5 104.5 108.7 114.6 124.1 137.7 135.8 132.2 124.9 115.1 97.1 109.9 112.9 106.5 111.9 111.3 109.4 111.3 114.2 111.5 109.7 112.0 116.8 115.9 110.7 102.7 99.9 98.8 87.6 83.3 83.4 72.3 70.2 75.4 80.0 73.8 56.1 48.5 54.6 46.3 34.7 36.1 45.1 54.7 54.2 64.7 49.8 49.0 61.8 59.2 69.1 64.1 52.8 47.9 42.7 43.2 45.0 45.6 45.9 44.7 42.9 37.6 34.1 35.3 36.5 33.7 33.4 34.7 31.4 26.0 23.5 24.1 23.1 19.6 19.2 25.8 30.9 27.7 24.1 18.9 15.3 17.4 17.3 12.6 13.9 20.3 25.3 26.1 18.6 8.9
102.7 103.0 111.5 101.0 82.1 78.3 94.1 102.6 111.0 114.1 115.5 124.4 134.2 135.1 128.1 132.1 142.3 144.5 159.3 161.0 155.5 146.5 140.8 159.3 172.0 162.9 152.5 155.0 151.7 152.9 150.6 146.5 141.3 149.9 145.6 112.7 89.6 81.2 73.1 68.9 70.0 67.0 60.3 55.4 54.8 55.4 61.6 63.5 59.8 61.6 61.9 56.2 46.8 38.3 37.7 40.8 48.9 53.5 57.4 69.9 61.4 60.2 85.6 96.0 85.8 85.3 76.1 77.1 72.5 50.7 39.5 36.0 39.0 71.1 101.1 101.9 83.9 92.4 102.3 90.8 98.2 128.2 128.0 115.6 111.7 126.0 132.0 122.5 136.9 142.1 143.0 136.5 134.3 132.2 151.7 166.6 168.1 164.7 154.5 155.8 162.5 144.7 139.0 147.6 132.9 136.2 165.6 163.5 171.8 190.3 213.2 224.2 215.1 223.2 272.0 275.7 234.4 223.6 234.4 261.5 248.3 218.9 207.0 204.7 224.5 245.7 276.1 271.2 246.3 227.4 241.8 252.2 225.8 199.9 202.8 218.7 232.6 237.6 234.4 240.4 248.0 233.8 228.5 226.9 220.8 216.3 207.5 207.4 214.4 212.2 219.7 223.3 232.7 239.2 241.3 247.3 260.1 261.5 248.3 241.4 245.1 231.8 227.8 236.3 222.8 226.5 243.0 238.6 234.2 242.9 247.7 238.4 231.6 230.9 232.3 228.6 227.1 228.9 227.0 209.4 199.2 201.2 186.9 161.9 153.6 148.4 130.1 128.9 136.9 147.5 142.4 148.7 157.2 164.2 170.8 168.6 166.8 161.4 145.2 123.7 126.8 117.5 107.2 95.5 109.2 140.4 127.5 109.3 128.9 137.9 115.3 91.5 97.6 100.3 98.0 111.7 129.3 131.5 126.1 124.2 111.3 99.8 112.2 102.1 92.8 100.4 100.7 105.3 109.0 99.9 102.8 107.3 107.2 105.6 98.9 92.9 85.8 89.9 96.4 90.1 83.7 83.0 74.2 62.8 65.3 68.3 66.7 71.1 74.5 73.6 60.4 38.9 29.5 34.3 45.3 46.5 39.1 48.3 50.9 55.0 70.9 71.1 61.8 52.8 47.0 39.1 36.5 39.7 41.9 42.2 37.5 33.9 28.7 28.4 33.0 29.6 28.4 30.9 29.8 27.0 25.4 22.2 19.3 18.8 17.4 20.2 25.2 21.3 14.4 17.5 19.5 13.4 10.2 14.5 20.6 24.7 26.9 21.8 13.7 8.4
106.9 113.3 118.0 97.9 75.5 80.5 91.3 91.6 97.8 116.0 121.6 129.8 135.5 126.5 133.5 139.5 147.4 156.3 155.3 144.6 146.6 143.2 139.4 158.6 161.1 157.1 155.9 150.1 143.6 149.2 152.2 147.0 140.9 147.8 138.4 117.7 107.6 92.6 86.8 83.0 71.4 66.5 61.2 54.9 52.2 49.8 55.2 63.1 59.4 56.1 62.8 66.6 58.3 36.9 32.4 41.2 43.4 48.4 50.6 52.0 62.6 69.6 85.8 85.5 89.6 85.7 64.3 60.5 65.3 50.9 38.1 38.0 55.5 85.9 98.4 90.9 84.2 81.3 96.9 114.1 118.6 120.1 112.1 117.8 115.9 116.2 123.7 102.8 96.3 104.8 114.5 128.6 130.9 135.0 152.9 160.6 187.3 193.3 176.5 188.4 191.1 155.5 134.4 145.4 135.1 140.7 156.9 167.9 189.7 205.4 214.7 223.4 244.2 270.0 281.1 249.3 214.3 238.4 249.0 240.2 229.0 212.1 209.6 200.9 207.2 234.5 242.5 237.6 235.8 214.8 213.0 213.9 207.1 206.0 201.3 203.9 215.2 225.0 231.2 241.3 242.3 223.2 215.2 208.5 207.6 204.4 209.4 211.2 213.0 230.8 239.5 234.7 244.5 261.2 260.0 252.9 262.9 272.6 266.9 256.6 243.2 234.6 222.5 217.5 227.9 237.5 230.3 227.4 236.0 247.8 247.7 234.9 239.1 240.7 247.9 251.0 240.0 231.7 222.7 214.6 205.3 201.3 186.3 166.4 164.0 142.0 124.7 122.7 125.7 135.8 145.4 155.7 165.3 170.9 167.8 174.8 180.7 160.8 139.9 128.7 131.2 131.8 120.9 115.8 117.3 106.9 109.6 108.7 108.8 120.6 121.5 94.7 82.2 92.0 104.9 116.9 128.4 133.0 128.9 117.9 113.6 97.0 96.8 101.4 95.8 88.4 80.3 89.9 99.9 93.7 98.9 107.8 106.5 97.8 90.4 92.6 92.1 85.4 86.5 89.3 91.1 84.8 75.3 78.2 73.8 56.5 57.9 69.8 70.6 62.6 55.1 56.3 46.2 32.1 28.8 41.9 59.2 70.0 66.3 62.6 61.5 56.8 53.1 44.3 42.4 42.4 33.5 31.9 34.8 35.0 33.4 31.6 30.7 26.4 25.2 28.8 26.7 26.5 27.4 25.7 25.1 24.6 23.9 25.1 25.0 18.1 13.3 11.4 14.1 16.6 15.8 13.3 13.8 18.8 23.0 25.5 24.6 18.2 11.9 8.0
100.5 99.1 97.3 80.9 73.9 80.0 80.9 83.1 92.2 100.3 106.9 118.9 122.1 127.0 134.1 145.4 151.1 148.9 145.5 136.8 137.8 137.3 139.5 148.9 153.2 155.0 151.3 148.4 142.1 137.7 141.3 144.3 139.1 134.5 126.9 120.8 142.2 127.2 128.9 111.1 75.9 66.3 64.4 66.0 61.7 52.4 51.7 59.6 59.4 53.4 54.0 57.3 58.0 42.8 35.3 38.6 48.7 74.0 73.7 70.3 86.1 91.3 102.6 95.9 90.7 91.1 69.9 62.2 49.2 35.4 35.2 41.4 70.0 90.5 71.7 74.6 101.8 106.8 126.3 143.8 133.6 124.5 105.2 102.4 117.8 107.5 99.1 92.5 104.9 117.7 121.9 140.6 146.6 147.6 146.6 165.5 186.4 196.3 191.8 197.0 186.1 167.2 166.1 161.6 137.2 142.4 154.0 175.8 202.3 204.8 204.2 212.0 262.9 268.9 227.9 216.4 226.4 229.2 234.4 234.7 217.1 202.9 193.2 188.5 203.8 205.4 214.4 209.9 187.6 194.5 202.8 187.3 179.3 209.2 219.6 225.2 231.3 235.3 233.6 244.0 243.7 221.7 217.5 212.4 200.6 205.6 222.1 221.3 219.7 219.2 223.5 233.2 243.1 247.3 239.9 249.5 260.6 267.1 255.8 244.7 236.4 236.7 241.4 227.7 220.0 217.8 236.2 263.7 271.9 265.7 240.6 230.7 227.2 222.9 240.8 241.5 237.5 230.9 213.2 191.3 183.5 181.0 188.3 188.5 173.4 144.6 138.9 135.0 121.3 132.9 148.6 146.6 149.4 159.7 165.2 169.3 151.5 158.9 161.4 165.1 151.4 132.0 127.6 123.2 101.9 83.8 79.2 78.6 89.4 97.6 93.3 80.7 78.9 99.7 107.8 112.0 129.4 133.9 128.8 122.2 112.7 107.1 98.7 84.8 77.9 92.2 101.0 86.1 84.8 80.7 87.1 97.6 99.5 92.6 83.3 83.3 84.6 75.7 77.5 84.5 88.0 87.4 89.9 89.8 79.7 73.1 69.8 55.9 50.9 55.5 63.1 65.9 61.4 52.7 34.1 37.0 51.6 62.0 73.7 68.9 59.3 55.2 50.9 44.5 41.2 40.2 38.4 36.6 31.9 32.0 32.9 29.2 25.1 21.6 21.1 21.1 21.9 25.0 25.0 24.8 25.3 25.1 27.9 27.2 22.1 17.3 14.6 11.7 14.5 16.9 13.1 12.8 14.4 18.4 18.3 19.8 17.8 11.8 9.4 10.0
99.2 91.1 74.1 66.3 87.3 104.2 94.2 96.4 107.1 112.9 116.8 121.7 125.5 134.8 144.8 147.5 149.1 159.0 141.9 131.0 148.3 149.2 159.0 161.8 148.2 159.1 156.5 139.5 144.7 138.9 132.4 136.2 141.5 135.9 137.9 134.2 136.3 147.2 127.2 106.5 90.4 77.4 68.7 62.8 58.3 52.8 46.6 47.2 49.4 50.7 53.4 53.5 51.9 51.1 43.8 39.1 57.1 71.7 70.3 67.0 71.4 73.2 87.2 88.6 78.6 77.6 75.5 56.6 40.2 37.2 39.2 60.1 75.2 87.6 89.9 100.2 109.6 93.2 109.6 133.2 123.0 113.5 105.5 93.5 107.4 107.8 99.8 105.9 114.6 125.1 123.8 137.8 150.1 146.1 154.0 161.6 175.6 205.5 214.9 223.3 207.1 164.3 158.1 159.8 132.7 121.6 154.9 186.2 188.5 216.1 224.0 218.2 202.5 192.1 204.4 193.4 195.3 216.3 224.8 224.9 217.4 210.0 194.6 193.6 194.8 186.0 199.4 193.7 173.9 186.3 207.4 202.8 198.7 197.4 209.7 228.9 241.4 247.5 248.7 238.4 222.5 221.6 225.3 212.1 203.7 212.7 212.1 208.1 215.8 212.4 230.2 251.5 251.6 246.7 237.1 234.7 241.3 257.9 271.7 261.2 253.9 254.8 252.0 248.1 235.6 230.2 263.7 284.5 261.2 265.4 250.7 221.8 222.5 231.3 230.3 234.0 241.9 237.1 217.8 207.2 192.0 182.6 178.4 172.7 164.2 151.6 150.0 139.3 120.1 138.1 156.9 138.0 136.4 156.9 165.1 151.6 136.6 145.3 154.0 149.9 135.6 122.8 126.0 116.7 105.5 85.2 69.3 67.6 75.6 97.2 96.2 83.9 88.0 97.8 119.6 132.2 130.6 128.2 121.4 115.3 108.4 97.8 99.0 101.1 100.6 100.9 89.2 75.1 81.8 84.3 86.6 91.5 97.5 94.6 86.6 75.7 68.9 63.7 67.0 71.0 76.2 84.8 86.8 83.8 82.6 82.2 73.7 66.9 60.1 47.3 45.0 51.8 52.7 46.5 31.7 23.7 36.4 43.7 50.0 62.2 57.2 47.3 44.6 42.1 37.8 35.2 35.0 32.9 25.5 25.5 27.4 24.9 22.2 20.7 21.0 22.3 23.2 23.8 23.4 23.2 24.5 26.1 26.8 20.5 16.4 16.7 14.9 11.1 11.7 13.8 13.8 8.4 10.0 13.7 11.0 11.4 10.5 5.7 4.3 5.8
93.4 85.7 73.8 69.6 86.7 97.3 88.1 93.8 97.5 101.0 121.7 124.6 123.1 132.4 141.9 146.0 138.7 137.2 133.8 143.2 164.7 165.4 161.1 164.3 150.1 146.2 145.4 135.8 144.7 145.7 133.4 131.9 134.5 131.4 139.1 148.8 150.8 150.1 145.4 154.6 128.5 89.2 74.3 72.0 67.3 58.9 48.2 47.2 49.0 46.0 41.7 43.0 50.0 47.9 40.5 38.7 43.9 49.7 57.7 64.1 65.5 62.8 74.4 91.1 72.8 62.7 69.2 51.8 38.1 39.8 47.3 60.1 83.6 101.0 105.5 105.7 101.8 107.3 123.2 121.6 104.5 102.0 102.4 94.0 95.5 86.2 96.0 110.4 114.5 139.6 138.9 132.6 150.4 151.3 159.7 170.8 185.0 202.5 204.9 208.2 202.0 185.9 169.8 145.3 117.1 129.2 166.9 182.0 185.4 175.3 205.2 213.2 164.3 159.3 170.6 181.3 204.9 222.5 236.3 222.3 207.3 210.6 209.8 200.8 190.9 176.9 191.5 219.5 210.1 189.8 204.2 215.0 211.7 207.8 208.6 223.4 239.7 243.7 241.7 229.1 207.6 198.7 207.0 211.4 203.2 205.5 200.5 215.3 221.8 220.9 232.3 245.1 243.1 243.0 241.8 236.4 246.0 258.2 271.1 262.7 251.6 243.5 252.1 274.5 256.8 244.8 259.1 263.8 246.9 226.0 221.3 227.7 232.0 232.6 226.1 223.7 229.9 232.4 220.4 203.6 189.7 182.5 156.0 139.2 153.5 172.0 169.7 142.8 118.7 129.1 150.7 137.8 132.1 149.2 175.1 169.5 154.7 141.3 123.9 115.1 126.2 135.4 136.1 123.9 111.5 86.9 69.2 67.8 73.6 99.1 100.0 106.5 104.8 96.0 119.1 137.1 135.0 125.3 113.2 109.3 113.0 115.7 109.7 92.6 90.6 99.7 95.7 90.9 86.0 78.3 79.3 85.9 91.4 92.0 89.8 80.1 70.7 63.4 57.7 59.1 71.9 82.1 86.3 85.2 77.1 70.1 67.9 70.2 68.0 58.4 44.6 43.6 45.1 38.2 29.7 21.4 23.6 39.9 53.5 52.9 44.2 39.6 38.0 38.0 37.8 34.3 30.3 32.8 29.0 20.1 20.3 22.4 22.1 19.9 20.3 22.6 23.9 23.2 21.6 21.8 23.6 25.7 18.8 10.8 8.7 11.0 12.7 10.4 8.5 8.4 8.5 8.4 6.5 5.1 3.9 4.1 5.9 6.1 7.8 6.9
84.8 72.4 67.4 72.1 77.0 84.4 86.6 94.6 100.4 110.2 126.0 118.9 121.7 142.1 143.4 140.3 132.8 125.5 139.1 147.6 151.6 149.7 154.8 154.5 142.2 145.5 143.5 142.9 144.3 133.3 129.0 128.9 131.9 135.8 139.0 154.0 162.8 152.6 158.8 169.1 158.3 118.4 81.1 69.6 67.8 59.1 53.7 68.2 71.3 61.4 48.7 39.9 40.9 49.7 44.9 36.5 38.9 48.4 57.1 53.7 55.1 61.3 62.3 72.2 64.3 52.8 45.2 36.1 37.2 45.1 65.5 88.4 85.2 84.7 102.6 105.4 109.6 117.7 130.2 117.2 102.7 110.6 105.2 92.3 79.6 70.0 78.4 102.7 118.4 127.4 140.5 148.8 162.0 161.2 155.4 174.0 188.2 187.8 198.1 202.3 199.8 207.8 185.4 160.0 149.0 141.3 164.1 157.5 160.1 191.6 193.3 155.9 159.1 209.3 215.8 214.3 217.4 227.4 233.4 218.1 191.6 180.7 194.8 176.5 174.2 210.8 231.5 230.2 234.4 225.8 219.3 219.6 214.9 214.6 212.2 206.4 218.0 237.5 235.5 214.9 199.1 198.6 194.2 195.9 204.1 195.5 202.0 215.5 204.9 207.1 220.2 233.9 244.2 254.5 250.3 241.5 242.5 254.8 270.5 270.0 272.5 263.8 291.5 280.8 237.1 254.0 255.1 233.7 246.8 232.3 212.6 215.0 212.7 214.2 217.8 222.3 220.3 214.7 213.9 198.6 169.4 150.0 151.5 139.7 137.8 159.5 161.3 147.4 129.7 121.7 114.3 109.4 124.2 151.5 166.9 157.3 145.3 148.9 157.3 140.5 109.6 101.0 110.4 113.4 120.2 102.1 84.4 77.5 67.0 66.6 78.1 90.3 101.3 120.7 135.8 137.4 134.6 133.5 130.1 122.3 119.1 119.2 110.1 102.6 96.4 91.0 89.0 85.9 91.2 83.5 77.0 81.7 86.3 85.2 80.5 78.4 80.9 79.1 68.7 58.9 66.4 76.1 82.3 80.1 83.5 80.4 65.8 58.3 54.9 50.9 38.5 35.3 39.4 36.5 28.5 20.8 19.0 27.6 42.8 48.7 43.1 38.4 34.0 32.1 33.2 35.0 36.6 36.1 34.7 27.6 21.6 19.4 21.9 21.8 18.5 20.7 23.1 24.5 22.7 20.1 19.6 15.0 9.2 6.4 5.7 7.1 9.1 8.6 6.0 6.0 6.3 5.7 5.2 5.2 3.9 4.7 5.7 6.4 8.7 8.8
77.6 73.3 76.6 98.3 99.9 93.2 101.1 108.3 113.8 125.9 123.5 113.4 122.5 141.9 139.7 140.4 133.1 140.8 150.6 151.6 157.9 147.1 147.7 146.8 140.6 143.3 138.7 135.8 131.5 133.4 141.0 133.4 127.1 133.1 148.9 164.1 155.0 137.7 134.4 144.1 141.4 112.1 84.6 69.7 62.3 61.4 68.3 71.4 70.4 64.5 53.7 50.6 41.4 36.9 36.3 34.0 37.2 47.0 50.3 46.0 50.1 56.8 58.8 63.8 60.0 46.1 38.3 36.4 43.3 54.0 68.0 88.2 99.6 85.6 85.7 90.4 100.2 102.6 111.1 116.0 96.7 91.5 94.9 79.4 66.0 81.5 101.7 113.2 137.9 161.0 152.2 141.8 157.0 155.3 150.7 156.3 158.1 155.3 172.0 188.6 192.3 194.4 189.7 184.8 159.9 118.4 125.6 135.5 145.5 176.8 156.7 143.6 179.1 203.6 208.2 221.3 222.8 220.4 214.4 204.7 191.7 168.5 187.0 188.7 186.2 195.3 195.7 209.2 221.9 215.7 201.0 207.3 219.7 232.1 228.7 223.3 224.1 236.8 234.8 221.2 221.6 218.5 220.8 218.8 194.0 177.1 197.5 207.0 211.3 222.4 240.0 255.9 253.0 260.1 264.7 263.5 267.8 279.3 289.6 311.0 298.0 263.1 265.7 273.2 263.0 234.5 212.5 214.3 200.7 204.6 216.7 199.9 200.0 208.4 194.4 197.0 199.9 206.6 192.2 169.2 157.5 162.5 160.2 138.9 126.6 138.2 147.1 141.4 132.3 134.6 121.9 112.5 125.9 133.3 148.0 159.7 143.2 153.2 158.8 132.3 113.4 120.0 111.5 93.5 111.5 110.2 99.0 100.0 83.4 66.1 71.0 91.7 105.3 97.7 109.1 124.1 124.1 130.3 130.8 117.6 108.2 107.4 98.0 96.6 97.8 83.8 79.9 84.0 79.9 80.4 73.8 71.0 77.9 78.0 75.4 74.0 70.2 70.0 68.5 56.3 56.1 61.1 65.0 76.5 81.8 76.2 71.3 63.5 53.0 45.7 43.8 36.3 31.3 32.5 28.7 22.1 18.5 23.4 34.9 42.1 42.3 40.8 40.2 35.0 26.6 28.0 34.9 34.5 35.1 35.3 26.9 18.7 17.1 17.9 18.2 21.5 24.5 24.5 26.7 16.5 12.5 13.0 7.2 4.3 4.9 5.5 6.9 7.0 5.0 5.5 5.9 5.0 4.7 4.6 4.4 6.0 8.4 5.0 3.1 4.2
67.4 68.4 92.5 101.8 98.3 101.4 111.3 123.8 126.9 126.0 117.4 114.5 128.6 139.2 133.7 137.3 129.5 139.4 152.9 139.9 141.2 143.5 136.2 133.4 130.5 132.1 129.4 123.9 128.9 140.2 147.1 139.9 130.6 133.0 140.7 150.9 140.4 130.1 119.5 125.2 128.0 112.1 97.5 83.2 73.3 65.0 59.6 60.9 60.4 57.3 51.9 42.7 37.9 35.2 32.7 32.1 34.1 37.5 36.7 41.8 44.2 45.7 56.1 51.8 39.5 37.0 37.9 38.2 56.1 75.2 66.9 70.9 69.6 71.9 100.9 107.5 91.4 90.9 95.5 127.9 127.0 91.6 75.5 69.1 79.5 94.8 107.1 127.1 135.4 148.3 138.0 125.0 152.0 143.4 122.1 129.3 139.7 142.7 166.7 188.6 189.6 182.3 192.1 201.7 193.7 153.9 109.8 109.6 153.0 158.4 136.8 144.2 159.4 166.0 190.4 208.2 205.2 205.4 194.8 188.8 191.1 181.1 158.2 153.0 153.4 158.5 177.0 202.4 205.9 192.5 197.3 209.2 220.3 238.4 238.1 228.2 236.0 244.7 241.3 230.4 221.5 222.2 220.4 208.1 188.5 180.9 182.7 191.9 211.9 221.1 235.9 253.8 262.9 262.0 276.7 295.2 333.8 363.6 323.1 316.4 293.9 267.2 290.6 273.2 233.6 215.6 199.3 189.1 184.5 183.8 190.5 188.6 182.8 169.6 175.7 192.9 184.6 189.7 183.1 174.4 167.3 153.3 148.4 138.4 134.9 129.6 140.5 142.3 126.9 132.0 133.5 122.5 105.7 114.9 144.8 151.2 132.8 128.6 133.7 137.5 125.1 121.6 117.7 99.4 84.6 79.6 85.8 89.8 98.7 79.6 56.6 77.3 89.9 91.6 111.3 114.6 115.7 119.6 118.0 113.2 107.2 100.9 96.6 104.0 102.7 92.3 84.6 81.1 71.4 70.8 65.3 57.1 66.5 67.8 65.3 61.8 59.3 58.2 57.9 57.6 57.5 57.4 63.1 75.7 76.8 66.6 74.8 78.8 71.0 60.0 55.1 44.9 32.3 29.0 27.1 23.0 18.6 17.7 28.1 39.9 43.6 42.7 41.3 41.0 37.1 31.2 25.7 24.5 27.7 25.9 24.0 22.6 14.8 8.2 15.6 25.3 26.4 24.8 22.1 12.6 11.3 12.1 7.5 4.4 5.9 6.7 5.3 5.3 5.2 5.1 6.5 6.8 7.4 7.4 4.3 3.0 5.0 5.0 2.4 3.0
66.6 72.8 87.6 89.2 85.3 88.6 98.9 108.2 122.3 121.5 123.0 132.0 130.2 135.4 140.8 131.0 122.3 137.3 141.4 124.7 120.7 120.7 131.6 131.0 120.4 124.4 133.3 141.4 137.2 141.0 153.2 155.7 150.9 141.8 141.9 154.7 144.7 118.3 113.7 122.7 124.8 106.9 92.2 83.2 70.4 62.0 58.7 55.0 53.7 52.7 48.3 43.6 41.6 43.2 39.5 35.5 34.2 31.4 36.0 40.0 40.7 48.2 51.6 44.2 39.7 36.5 36.0 38.7 44.0 53.9 71.6 79.5 78.2 91.2 103.5 103.9 110.9 108.1 96.4 112.8 121.1 91.0 63.8 80.0 108.2 119.6 113.2 126.0 133.7 134.9 125.0 143.1 157.3 136.5 130.1 118.3 116.8 132.1 161.7 185.7 194.1 190.4 178.9 178.8 177.1 156.5 124.4 129.8 156.9 161.2 158.8 164.8 179.4 190.2 185.8 185.1 200.8 202.1 192.7 173.0 158.5 169.8 165.2 149.6 157.2 156.5 173.8 198.8 218.3 214.1 204.4 215.1 219.4 225.2 225.5 230.3 244.7 238.3 224.3 210.2 205.3 202.9 197.2 196.8 191.7 199.8 201.3 196.3 194.5 199.1 217.7 239.5 240.5 239.8 276.7 287.2 263.6 253.7 254.4 266.4 253.1 244.1 241.7 235.0 232.2 217.4 193.9 186.6 175.0 166.2 171.7 163.5 156.6 162.0 163.9 157.2 155.6 169.5 185.8 186.1 167.0 150.2 142.2 130.1 135.4 136.6 134.3 135.5 125.5 111.2 115.5 102.1 85.0 96.4 122.6 131.6 137.8 134.0 128.4 129.4 110.0 98.2 95.3 101.2 99.1 98.6 101.0 100.0 88.0 70.5 61.0 58.0 89.5 116.1 115.7 110.3 109.4 109.5 107.2 115.5 112.8 98.1 89.5 95.0 104.0 101.4 86.5 80.3 77.7 74.3 68.9 61.3 57.9 56.5 55.7 54.8 52.6 49.3 48.5 47.5 52.0 52.7 61.7 76.1 75.1 64.1 67.4 82.2 76.5 57.2 43.6 35.1 39.5 39.7 27.8 21.4 18.6 15.6 19.3 30.8 40.2 43.4 41.9 37.1 31.1 33.2 30.1 19.7 18.9 21.3 23.7 22.0 18.3 11.7 13.6 22.0 20.0 18.2 13.9 6.4 7.5 9.0 8.1 5.8 4.0 4.1 4.5 4.4 4.0 5.7 7.6 5.5 6.7 9.8 6.6 2.5 2.1 3.0 2.5 2.1
65.7 76.3 81.5 79.5 88.7 94.7 108.3 121.9 125.6 115.6 109.5 118.5 129.2 131.0 127.4 123.8 115.5 112.1 113.1 112.5 113.0 126.1 142.7 151.7 140.0 124.4 128.6 142.2 145.9 144.0 155.9 170.2 169.6 155.1 150.3 157.6 136.6 115.1 120.7 129.8 121.5 107.3 96.3 83.9 70.7 62.2 59.3 54.8 49.2 46.8 54.5 65.7 63.7 55.1 48.0 46.2 43.1 34.5 32.0 36.8 44.1 53.2 50.1 41.7 39.5 37.7 37.0 46.9 68.4 68.1 56.5 58.1 63.6 72.0 72.9 87.0 106.5 105.6 102.3 104.4 100.7 85.7 64.7 77.3 108.0 123.3 119.4 123.2 112.7 128.2 146.1 139.8 125.4 118.1 107.9 106.2 137.6 146.9 173.0 200.4 207.7 204.8 179.8 162.1 157.7 152.8 138.3 123.9 129.5 140.2 153.0 150.3 129.4 135.9 167.0 178.6 191.0 204.0 189.5 159.2 145.0 176.0 182.9 157.8 156.1 161.8 175.4 203.6 203.7 189.2 188.9 198.4 214.1 231.8 239.7 233.9 227.4 223.6 211.7 203.9 215.4 213.0 198.8 197.7 202.3 199.8 181.1 193.8 198.0 195.7 212.2 226.7 246.0 253.6 246.5 246.7 235.1 236.2 251.5 269.4 264.2 231.4 223.7 227.2 214.8 193.2 181.7 175.5 153.3 134.1 147.4 159.0 156.1 153.9 164.8 164.1 151.7 158.4 170.9 180.1 163.1 153.4 156.9 151.9 132.9 126.8 137.6 126.7 111.1 111.6 111.4 95.9 85.5 112.8 133.9 130.3 131.3 135.1 122.8 110.8 105.6 101.1 97.3 92.0 84.3 101.9 102.1 91.3 103.5 95.0 75.5 61.9 80.0 100.8 101.5 106.9 110.3 108.4 102.6 105.7 115.0 111.8 99.0 95.3 95.0 101.1 96.7 92.1 97.5 88.1 75.5 73.3 67.7 59.7 59.3 60.4 58.5 57.0 58.3 55.3 48.1 44.4 52.5 69.7 68.8 56.9 65.8 81.0 75.2 66.3 59.0 47.3 46.0 43.6 37.4 31.2 21.1 14.5 16.2 24.0 32.9 39.6 39.6 31.1 32.4 37.1 34.2 29.0 23.2 20.0 21.6 23.3 21.4 13.7 10.4 16.0 19.0 13.3 7.5 5.2 3.6 5.5 6.1 4.1 3.5 4.3 4.0 3.7 4.2 6.2 6.3 4.3 7.2 10.0 6.3 3.1 2.2 1.7 1.6 2.6
72.3 78.7 79.3 84.0 85.9 91.7 106.6 112.1 119.6 114.7 114.6 127.3 126.4 121.1 119.8 112.9 108.1 111.2 128.9 143.1 135.8 133.9 135.4 145.9 153.0 139.5 126.9 130.0 140.6 152.2 157.9 164.9 159.8 151.6 157.0 160.1 141.1 126.1 125.9 121.0 113.2 108.1 104.9 88.2 67.3 59.9 58.9 58.4 55.7 56.8 64.5 67.4 62.6 52.8 44.9 41.4 35.3 31.2 33.8 42.0 51.5 56.4 57.0 51.6 41.6 35.1 36.8 48.6 60.1 70.7 75.4 83.8 94.1 76.8 64.0 75.4 85.0 97.5 112.8 104.7 95.9 86.8 65.8 80.4 94.9 105.7 103.8 98.6 101.6 120.1 148.2 141.9 113.7 100.8 109.1 130.6 158.8 158.0 167.8 177.0 178.8 198.0 213.1 188.5 152.9 137.2 125.0 139.8 143.1 137.8 150.0 133.3 119.5 144.2 169.5 172.8 185.8 190.4 173.9 158.5 151.4 159.0 163.1 152.0 145.2 149.4 154.5 177.3 188.2 198.0 209.6 214.6 215.2 216.5 224.6 230.9 242.5 244.8 231.9 220.4 220.6 224.1 223.6 213.1 190.5 185.8 178.3 181.0 196.7 207.3 231.8 251.5 230.4 211.0 212.7 215.0 215.2 227.7 232.4 233.5 234.9 211.3 203.7 194.2 174.1 169.9 180.3 192.5 188.4 165.5 150.4 138.1 136.8 135.3 136.3 144.3 148.2 159.3 171.7 182.4 178.0 167.4 150.1 140.1 138.9 117.1 114.8 128.3 128.5 123.0 110.4 94.4 86.7 99.6 117.0 137.4 142.0 135.8 118.5 105.8 120.7 132.8 110.6 96.5 99.0 103.2 89.8 78.1 80.3 81.3 77.3 67.6 76.6 84.3 88.4 100.8 103.2 99.5 96.4 96.3 103.8 105.1 101.9 95.3 89.2 94.2 93.0 98.9 106.5 91.7 82.0 81.5 79.0 73.1 72.8 72.0 73.2 73.3 73.6 71.7 59.0 47.1 41.7 54.6 58.0 53.6 66.9 79.2 80.0 70.5 61.3 58.2 48.8 41.3 34.2 27.2 20.1 15.2 15.4 21.3 27.8 33.8 36.5 32.5 33.0 35.5 34.3 28.5 25.9 19.2 15.6 19.3 20.4 17.0 7.6 10.6 10.5 5.1 4.4 4.6 4.6 4.6 5.0 2.8 1.4 2.8 2.1 2.5 4.8 8.1 9.9 9.3 8.7 6.5 4.5 3.3 3.9 4.6 4.1 2.5
80.6 88.2 82.4 73.8 80.8 92.2 93.8 103.0 115.5 109.8 112.9 120.8 116.6 112.0 109.4 104.8 107.9 117.9 134.6 143.5 144.5 138.0 130.6 140.1 150.4 144.0 130.6 131.6 142.7 148.4 156.8 166.4 160.6 157.0 164.1 160.1 146.1 123.0 109.7 109.9 109.7 98.5 90.9 97.7 83.3 67.2 65.4 61.4 59.2 57.9 63.2 70.2 74.5 68.8 57.9 46.3 37.3 30.7 27.3 30.5 40.6 53.6 50.1 40.3 37.1 34.0 34.5 37.6 39.4 51.6 64.7 74.5 78.9 79.1 77.5 88.4 98.4 110.0 122.6 102.1 85.0 80.3 64.3 71.7 91.4 110.6 110.4 114.4 116.8 113.4 118.8 118.8 115.3 120.5 126.9 136.6 145.5 148.4 158.4 161.8 168.8 186.2 200.2 201.7 180.8 173.2 170.3 155.7 150.4 131.7 132.1 133.3 127.0 146.6 168.3 177.1 189.0 187.1 172.6 177.0 176.8 158.2 146.7 144.5 145.7 160.2 173.1 185.4 196.1 194.7 200.5 213.8 209.0 204.3 206.5 218.2 238.8 233.6 238.0 233.1 218.8 212.2 216.3 213.2 198.9 184.9 170.1 184.5 211.7 202.1 186.9 189.1 186.6 192.1 189.9 190.2 194.2 199.9 205.3 223.9 224.6 202.8 194.7 190.1 180.4 179.7 187.6 181.4 164.8 163.9 168.2 161.8 147.5 130.9 129.9 146.9 156.6 158.4 156.6 153.7 159.3 173.7 158.2 137.9 129.2 120.9 114.3 110.2 115.2 115.9 109.4 97.0 84.0 83.7 108.9 118.7 114.7 126.2 134.9 136.6 134.9 118.0 112.7 122.6 122.0 105.1 86.8 92.4 88.9 75.6 70.3 75.9 84.6 92.5 93.1 94.8 100.0 95.1 93.4 92.0 97.5 100.7 96.7 91.5 83.8 86.5 87.5 94.6 108.4 103.6 98.2 94.7 87.6 83.6 88.6 92.7 90.6 84.6 69.5 59.3 51.5 47.1 45.0 45.9 48.4 54.1 69.3 78.8 74.3 67.3 58.0 59.4 62.9 50.4 40.6 31.9 20.2 14.6 14.4 19.5 25.3 28.2 32.0 31.6 34.1 34.2 24.4 21.9 24.3 23.3 15.7 13.9 20.2 14.7 5.6 2.6 2.0 3.3 3.7 4.0 4.6 4.9 5.0 3.1 1.3 1.4 1.4 1.7 3.7 6.9 8.1 6.2 3.3 1.4 1.6 3.7 4.7 4.6 4.4 3.4
78.6 89.8 98.2 84.7 80.9 96.7 104.1 104.7 101.8 100.9 101.9 104.5 110.8 125.6 129.9 118.1 121.9 122.7 128.2 138.6 139.2 140.8 151.0 149.0 143.4 151.8 145.2 136.5 140.2 148.7 167.1 172.8 153.1 143.2 145.9 150.5 143.6 125.9 104.9 97.8 94.8 87.2 97.7 87.0 79.7 70.1 61.7 68.6 63.9 57.2 55.8 54.4 61.6 66.6 61.1 56.3 50.0 35.5 26.2 29.4 44.3 46.6 46.4 44.6 38.9 34.4 26.5 27.5 34.4 44.2 50.0 56.2 61.9 71.4 86.9 94.3 98.1 103.7 111.3 117.2 108.1 95.2 72.0 58.3 67.7 99.3 111.9 93.5 113.2 113.5 112.5 117.3 90.8 108.1 136.9 150.8 152.7 142.1 142.2 131.4 142.4 167.1 175.1 187.2 184.5 179.5 153.5 146.9 141.4 120.5 116.8 120.6 128.4 137.7 143.3 147.5 160.8 176.6 177.2 180.1 173.9 158.8 148.9 140.9 141.2 163.6 171.9 185.7 204.9 206.0 210.7 202.5 183.2 185.2 206.9 217.0 224.1 220.0 234.9 233.7 223.6 209.9 198.2 195.3 180.6 171.0 165.9 166.2 167.7 168.5 178.9 187.3 188.2 188.6 186.7 193.9 209.3 216.8 218.2 226.4 227.5 203.8 194.8 205.6 196.0 187.2 187.3 191.1 173.7 179.8 195.2 178.6 160.0 151.5 140.6 125.7 118.0 130.0 139.0 130.3 131.2 149.8 167.1 154.4 154.7 149.7 128.5 133.4 128.4 104.5 97.9 100.3 86.1 76.4 96.6 104.1 120.1 124.2 136.1 148.5 146.2 147.8 147.2 123.1 109.4 110.3 102.3 107.4 101.0 97.0 91.1 66.9 55.9 74.2 88.5 91.6 94.3 96.4 95.0 92.7 96.1 94.6 93.7 93.4 85.5 86.4 84.5 86.9 103.1 105.6 94.8 91.9 94.6 95.7 100.4 103.0 100.7 88.3 83.5 77.4 61.9 62.9 61.4 47.8 42.3 46.6 57.4 69.0 63.0 62.3 59.0 53.2 55.0 51.7 50.5 39.3 27.9 18.4 13.6 16.8 20.5 23.6 26.0 28.3 32.8 30.1 22.8 18.2 16.1 15.1 16.1 13.9 12.0 10.4 6.8 3.2 2.4 2.1 1.1 1.7 3.0 4.4 4.7 4.2 2.7 1.3 1.0 1.9 3.0 2.9 2.6 3.5 2.9 1.8 3.6 4.7 3.2 3.0 3.5 2.9
81.1 86.4 94.7 92.2 92.2 102.5 100.9 94.7 99.0 102.0 108.2 113.8 115.8 110.7 117.8 122.8 130.7 133.3 127.0 137.2 137.7 141.9 154.8 156.9 151.8 156.4 159.0 159.1 163.8 164.5 160.4 152.7 144.6 139.6 138.3 137.8 136.0 138.7 120.7 104.4 102.1 97.3 100.1 91.4 86.5 74.6 65.5 68.2 63.4 58.4 53.3 47.8 49.8 50.5 58.7 66.7 63.7 41.0 26.1 36.5 40.4 32.8 30.1 35.7 40.4 41.0 31.6 24.4 32.8 39.9 43.6 49.3 56.3 59.9 67.2 73.0 79.7 90.7 96.4 98.5 102.8 99.1 78.2 60.6 69.9 99.3 123.8 97.5 95.0 115.2 109.3 109.3 88.1 114.2 131.6 139.1 154.4 133.5 120.9 127.7 132.2 152.9 156.8 166.5 169.0 148.6 134.5 144.2 143.7 104.6 89.5 93.9 103.7 122.6 129.5 132.8 148.5 152.7 155.8 159.8 162.9 146.0 139.7 138.1 134.8 149.7 151.5 156.5 172.3 173.0 188.0 182.6 169.1 181.6 201.9 194.9 202.4 227.6 239.6 232.0 213.7 206.6 208.4 216.0 203.7 185.6 170.0 155.4 153.2 168.6 173.6 169.4 167.2 186.1 203.5 201.9 202.8 203.3 204.4 217.6 222.2 207.3 208.3 214.6 208.7 200.7 209.9 209.2 190.7 185.5 185.0 176.1 163.1 144.8 139.9 144.7 141.0 123.1 114.9 116.5 134.3 151.0 157.1 150.7 150.6 156.5 153.3 149.7 146.8 137.8 127.8 114.6 90.3 76.0 91.5 98.5 99.0 106.1 116.5 138.3 140.7 141.1 143.7 136.6 123.6 107.6 105.4 109.9 101.8 93.3 91.2 73.4 57.2 75.3 79.3 81.1 92.7 98.3 102.6 95.9 82.3 77.0 88.2 99.3 95.4 86.9 77.1 81.4 95.7 100.8 98.4 87.0 82.1 84.8 86.2 90.9 89.0 87.7 93.3 83.7 75.3 77.7 70.6 61.2 52.8 43.9 47.4 53.0 53.1 60.2 55.3 46.2 47.6 47.4 52.0 43.1 37.6 25.5 13.5 14.6 15.6 19.6 23.0 22.5 25.1 28.0 29.0 27.7 26.6 24.1 16.3 16.3 10.5 5.8 4.9 2.9 3.8 3.2 1.7 2.0 2.2 3.5 3.6 3.2 4.0 2.6 1.1 1.0 1.0 1.1 1.1 1.0 1.0 3.0 3.0 2.1 2.5 2.2 1.5 1.4
77.8 88.5 96.6 105.0 107.1 100.1 95.1 94.3 111.5 120.2 122.5 117.6 122.3 124.2 111.1 119.0 123.0 131.6 151.3 147.8 136.1 129.8 128.9 139.4 152.6 159.3 150.1 159.6 172.9 156.4 145.1 147.7 150.3 138.8 124.3 127.7 126.2 135.8 126.6 104.9 93.4 92.1 104.5 106.9 111.5 99.2 85.0 69.2 51.1 51.7 54.4 46.5 42.7 41.4 49.8 58.7 76.9 60.3 37.2 36.5 35.0 30.9 25.7 24.0 28.9 35.7 28.8 21.8 29.0 35.0 40.8 44.4 51.7 56.0 57.9 62.4 70.5 77.8 80.2 78.7 87.6 90.7 88.5 67.0 61.3 91.6 121.0 96.8 83.5 107.5 105.2 124.0 120.0 111.1 104.4 131.6 137.1 115.3 127.0 142.2 139.6 143.3 140.5 151.9 163.1 170.7 162.6 134.7 125.0 108.3 90.0 85.0 86.1 97.6 108.8 120.6 129.3 130.4 134.0 143.1 150.9 159.1 166.8 150.8 147.5 163.1 156.7 141.7 148.8 150.4 154.7 168.7 177.3 191.8 194.2 196.6 208.9 213.9 221.9 230.4 228.8 212.2 199.2 193.2 182.3 163.4 168.4 148.2 139.2 156.7 166.8 167.9 168.5 179.8 194.4 202.6 197.2 189.5 178.2 172.9 171.6 173.8 178.1 185.1 184.8 188.5 199.6 187.8 171.4 168.1 173.9 168.1 148.5 144.7 138.8 122.8 128.4 120.8 112.3 120.0 155.5 174.1 158.8 141.4 143.1 139.5 132.7 137.0 138.6 134.3 114.2 108.6 97.3 78.7 78.9 87.6 96.2 124.8 138.9 143.7 147.5 136.7 134.1 132.8 117.4 99.1 100.9 107.0 108.4 99.8 91.9 85.5 67.8 64.5 62.6 71.4 77.1 81.6 100.5 99.2 88.1 77.1 74.4 88.9 92.7 86.1 80.0 78.3 83.0 90.8 87.1 78.4 78.3 83.1 84.9 87.4 83.7 77.8 78.5 90.3 92.7 88.0 81.2 72.1 61.9 56.1 44.2 39.2 44.8 57.2 63.1 56.1 56.2 50.5 42.7 41.6 41.1 30.6 18.9 14.9 14.5 17.0 19.5 19.7 19.2 21.7 25.1 26.6 27.0 25.1 21.0 10.6 3.7 7.1 5.5 3.2 4.5 4.4 3.2 1.7 1.1 2.4 3.8 3.2 3.8 3.2 1.4 1.0 1.1 1.9 1.8 1.6 1.4 1.6 3.3 3.6 1.5 0.5 0.7 1.9
74.1 84.1 96.6 101.3 95.3 93.0 95.2 98.8 109.1 120.1 124.7 118.0 120.2 126.1 124.5 112.9 111.0 129.4 138.9 131.0 124.3 124.2 127.3 138.8 148.6 163.5 165.7 163.1 168.9 153.3 141.5 150.5 154.3 150.0 141.4 122.1 112.3 123.4 130.4 118.1 103.2 96.8 85.6 91.5 103.0 86.9 80.4 70.5 59.8 64.9 61.0 54.5 57.4 55.3 48.5 46.1 61.2 74.6 71.7 62.4 58.7 48.0 36.5 27.1 24.3 27.8 24.8 24.5 27.2 34.5 38.7 42.5 48.3 48.9 53.7 58.7 66.5 74.0 72.1 72.3 75.5 65.8 68.2 56.3 49.9 83.7 106.2 76.5 74.3 105.3 110.6 118.1 117.3 106.2 112.9 132.2 110.4 105.6 124.8 120.1 118.7 135.1 143.6 154.0 135.4 129.8 158.4 162.3 130.3 94.1 78.8 76.2 65.8 66.8 83.6 91.6 104.2 105.5 111.0 120.3 121.9 124.2 130.4 128.9 127.0 144.1 159.6 161.8 160.6 149.4 155.6 169.3 172.5 176.1 173.1 177.6 173.9 174.2 192.7 209.4 198.7 182.6 182.5 182.2 197.0 190.6 180.5 147.3 120.0 121.1 131.9 145.3 166.2 165.8 164.7 168.7 164.4 161.2 152.0 147.5 147.9 142.4 146.0 160.3 175.9 183.2 205.1 206.3 184.3 181.2 186.1 192.6 179.9 157.3 153.8 141.1 123.7 122.5 121.2 111.0 140.6 164.0 162.7 162.1 137.2 121.5 127.0 130.6 133.4 123.7 110.9 105.7 96.3 81.8 83.9 89.8 97.8 110.9 131.5 146.3 143.6 135.1 129.6 122.9 114.1 106.0 104.8 99.3 93.1 98.0 94.8 82.9 73.0 64.1 60.7 74.6 87.7 86.5 86.6 96.9 100.7 89.9 81.4 86.9 89.3 78.1 66.0 75.3 80.0 82.8 88.9 80.0 73.5 71.2 78.0 87.3 79.1 73.3 80.7 87.5 82.6 80.8 85.0 75.4 62.2 52.6 48.2 40.4 35.5 42.5 48.2 49.4 49.0 47.9 40.9 39.1 41.1 38.1 34.8 22.6 15.2 13.6 13.6 13.4 15.6 18.5 18.7 22.4 25.3 22.3 17.7 11.9 4.7 3.5 5.2 4.7 4.3 4.1 4.2 2.7 1.5 1.4 1.0 2.3 2.1 1.0 1.0 0.8 1.4 2.8 3.2 3.8 2.5 -9999.0 -9999.0 -0 -9999.0 -9999.0 -9999.0 -9999.0
83.6 98.3 96.6 92.5 93.8 98.7 106.9 109.9 107.7 112.1 121.6 124.6 128.2 128.9 121.1 116.1 120.0 116.9 113.3 112.7 117.2 132.3 145.9 151.7 150.0 159.0 160.1 153.0 156.4 154.4 137.1 143.0 151.6 142.1 131.4 117.2 116.5 128.6 133.7 119.2 104.9 90.3 80.6 83.6 82.4 71.3 74.7 79.5 87.7 100.6 84.4 63.2 55.9 49.4 42.9 38.4 43.4 54.1 66.5 80.0 65.0 40.7 44.6 37.5 23.3 22.0 26.1 37.5 41.0 37.5 38.1 39.9 40.3 44.8 51.8 59.7 69.3 70.2 63.3 61.7 62.0 60.3 57.6 48.9 44.7 61.5 86.4 72.3 74.5 83.8 90.5 106.9 108.8 106.0 111.7 90.8 103.5 150.0 135.8 99.9 130.9 152.5 131.2 137.4 124.0 125.7 165.0 157.5 133.7 100.6 72.7 65.8 62.4 59.2 73.0 88.9 113.3 104.6 102.8 116.7 122.7 115.8 114.7 102.4 97.7 116.2 120.8 120.2 119.0 125.5 133.7 133.4 135.3 142.5 148.1 146.3 145.8 162.8 175.8 184.2 182.3 175.7 169.4 153.7 160.5 164.9 157.0 142.4 136.8 129.5 132.2 143.8 134.6 126.3 123.9 130.5 132.3 138.4 135.9 135.8 142.6 139.5 147.4 147.7 146.5 172.0 217.3 225.1 190.6 171.4 162.2 169.2 185.2 188.7 192.2 177.8 145.3 128.5 116.4 102.5 133.3 162.7 154.8 150.0 139.7 135.7 134.1 118.7 117.4 120.6 114.1 108.0 99.3 84.5 77.3 86.0 113.4 125.2 126.7 139.4 136.8 128.0 125.6 111.2 103.1 106.1 105.7 102.4 87.0 85.0 83.9 70.9 66.6 68.5 71.6 76.3 73.4 72.1 78.9 98.6 105.4 94.4 75.1 77.6 83.2 79.5 79.2 82.1 75.8 74.1 84.9 79.3 70.7 69.1 69.5 78.4 80.1 70.8 67.0 77.0 74.7 75.3 82.5 77.2 69.3 64.1 60.4 57.8 47.8 34.8 31.1 35.1 38.2 39.4 39.2 39.7 40.0 38.6 31.9 29.1 33.5 21.2 8.8 8.8 12.1 15.7 17.2 17.6 18.0 22.2 21.8 14.2 7.3 3.2 2.4 1.8 3.2 4.0 3.1 2.3 1.4 1.0 1.0 0.8 0.6 0.6 0.6 -9999.0 0.3 0.9 1.5 2.0 1.0 -9999.0 -9999.0 -9999.0 -9999.0 -9999.0 -9999.0 -9999.0
91.2 93.2 92.4 100.8 104.0 99.7 102.9 107.1 109.7 110.2 114.8 120.2 126.3 124.2 119.3 127.0 126.1 125.1 119.3 112.8 120.6 143.0 160.8 150.4 149.5 157.4 154.7 141.3 145.2 142.2 125.7 137.2 139.2 146.3 141.5 117.1 112.5 126.5 137.1 125.8 106.5 93.9 84.3 75.9 77.7 89.3 89.2 82.0 79.0 73.6 67.9 56.7 45.5 39.0 34.2 31.6 36.9 49.2 53.4 45.0 39.6 28.7 20.9 25.4 26.9 26.9 31.0 38.7 43.5 43.9 42.2 41.2 47.7 57.3 60.2 68.8 67.9 61.4 59.7 58.5 57.4 59.3 58.9 53.9 45.2 48.4 61.7 62.8 79.4 73.8 85.5 88.4 93.2 98.8 108.7 98.8 106.3 127.8 129.8 104.0 122.0 134.8 114.2 114.1 107.5 108.2 138.3 135.8 116.9 87.9 60.9 50.6 52.1 56.1 89.7 121.4 129.6 108.8 103.5 108.4 117.8 124.0 91.5 72.3 79.0 85.0 92.1 89.7 89.5 104.3 114.1 108.0 114.0 121.9 122.6 128.2 138.0 159.0 174.9 179.2 196.7 194.6 163.4 145.7 136.5 130.2 129.1 130.1 135.7 136.8 130.0 121.8 115.1 105.8 106.4 126.0 122.3 129.3 131.6 126.8 133.5 141.7 147.8 161.3 164.3 176.4 208.3 222.5 189.5 170.9 172.2 154.8 169.2 184.6 176.6 152.7 141.6 134.0 114.9 103.4 127.6 153.8 138.2 125.6 126.2 131.3 129.1 121.3 118.2 113.2 104.1 100.5 96.4 92.6 84.7 85.7 103.6 99.7 108.6 128.8 131.7 124.6 119.4 116.5 102.2 97.0 99.2 98.1 93.3 77.3 74.0 77.0 68.3 58.9 56.6 59.0 66.6 75.7 80.2 90.7 100.3 100.1 87.8 76.1 69.6 66.3 64.8 64.9 68.0 66.6 75.6 80.8 75.9 69.8 68.9 77.0 81.1 71.2 70.6 74.6 70.8 73.9 80.1 81.0 76.0 66.8 61.4 63.0 63.3 52.2 43.8 36.3 29.9 29.8 36.1 40.0 40.7 40.9 37.6 35.0 31.3 25.7 16.8 12.3 10.4 11.7 15.3 16.2 16.1 16.8 17.1 12.2 8.7 6.9 3.4 1.1 0.6 1.9 3.4 2.2 1.3 1.7 1.6 0.1 -9999.0 -9999.0 -9999.0 -9999.0 -9999.0 -9999.0 -9999.0 -9999.0 -9999.0 -9999.0 -9999.0 -9999.0 -9999.0 -9999.0 -9999.0 -9999.0
91.2 93.3 100.4 111.5 110.0 106.3 106.2 104.7 109.3 113.3 116.9 121.9 128.7 128.5 131.1 132.1 123.7 128.3 122.3 116.4 124.4 138.5 150.8 144.2 140.3 138.4 133.2 137.6 141.4 143.4 137.6 139.1 134.8 134.6 129.0 114.0 106.8 108.8 128.4 144.5 140.1 124.9 114.7 108.0 94.9 83.5 73.8 75.9 75.7 64.9 61.1 57.9 58.5 51.7 43.1 35.3 32.1 40.3 46.7 32.1 21.7 22.7 25.8 39.2 48.7 54.7 57.7 54.8 55.9 57.4 58.3 50.4 48.5 55.0 67.5 70.5 66.5 61.2 54.6 53.9 52.8 55.7 60.0 55.5 49.8 44.4 42.9 52.5 58.5 55.1 65.0 57.4 62.3 57.3 69.6 91.5 93.9 94.0 104.8 87.7 87.2 102.4 101.5 121.1 108.1 94.5 101.8 109.2 84.9 55.9 49.4 43.6 41.9 44.8 73.4 102.1 117.3 97.0 104.8 116.9 93.5 76.4 64.9 61.0 64.4 66.7 67.6 78.3 82.2 93.4 109.9 101.7 109.4 131.6 121.6 137.0 154.9 160.7 163.9 161.4 163.8 163.1 162.0 161.1 136.2 113.8 122.0 135.5 127.7 110.6 103.0 103.0 100.3 104.5 127.7 137.3 122.5 120.2 129.6 154.4 174.5 173.6 171.5 184.3 197.7 195.3 204.7 221.1 211.5 202.6 189.5 154.8 159.5 165.7 158.5 150.8 145.8 132.1 116.3 103.7 123.5 146.3 142.7 124.3 117.3 126.8 113.7 109.1 112.7 108.1 93.9 88.0 105.3 114.7 107.7 85.9 81.1 92.1 107.5 118.5 119.4 110.9 111.8 113.6 106.0 95.4 86.1 81.3 76.8 78.4 77.6 71.6 67.1 61.1 52.8 52.9 56.7 69.6 81.0 78.1 90.6 99.3 93.2 87.5 81.9 71.3 62.5 57.4 66.7 75.8 69.6 61.8 70.0 76.4 69.1 71.2 81.5 75.9 75.0 74.9 66.1 63.4 70.0 72.4 70.0 71.1 63.9 55.3 54.6 59.3 53.7 49.2 47.3 32.3 31.7 39.8 40.6 38.0 35.0 29.4 23.0 20.4 21.5 13.9 8.6 8.0 11.3 15.8 16.1 14.8 16.6 15.5 9.9 6.5 3.1 -9999.0 0.4 0.6 3.4 3.2 3.0 4.8 4.0 1.2 -9999.0 -9999.0 -9999.0 -9999.0 -9999.0 -9999.0 -9999.0 -9999.0 -9999.0 -9999.0 -9999.0 -9999.0 -9999.0 -9999.0 -9999.0 -9999.0
92.4 100.8 108.0 111.2 114.6 116.6 114.3 110.8 111.1 114.8 116.7 120.8 128.4 130.9 130.5 130.4 126.8 131.5 123.7 127.3 127.0 134.3 142.3 145.4 155.8 153.4 135.9 131.9 131.8 130.6 120.9 133.9 149.3 131.8 125.5 119.2 104.4 105.6 111.6 125.8 123.5 121.6 145.7 139.9 116.8 92.4 79.2 88.6 89.4 77.8 78.7 90.0 94.1 77.8 56.2 46.8 34.0 25.1 34.2 27.7 20.9 27.9 31.8 37.3 51.5 58.1 68.4 72.5 58.7 49.4 54.1 60.9 62.3 60.5 72.8 79.9 69.3 57.7 51.7 49.8 50.6 55.1 58.1 60.3 47.1 36.3 40.9 47.3 49.4 48.6 42.0 38.2 47.3 55.8 63.4 76.6 84.7 76.1 79.2 92.6 70.1 47.8 49.4 90.8 101.4 83.4 88.9 87.3 57.8 42.9 41.5 46.2 52.5 52.2 47.9 50.3 61.4 67.1 93.3 93.4 64.9 54.0 54.4 58.4 86.0 104.6 102.6 113.1 118.4 110.3 96.1 102.0 123.2 127.0 118.4 123.3 140.3 145.3 150.4 145.8 137.0 130.7 131.4 130.9 126.0 119.8 105.1 109.8 110.9 109.3 95.3 83.9 100.6 109.3 104.6 116.1 124.4 113.5 118.4 141.6 141.3 130.7 145.0 193.1 207.4 184.7 206.3 213.2 193.4 189.9 179.0 168.4 160.3 139.7 146.8 159.2 149.2 128.9 111.5 107.0 127.6 141.7 133.9 125.2 121.9 121.4 112.2 105.5 106.2 99.0 93.3 85.2 84.8 89.0 85.3 75.2 84.1 108.3 111.7 113.6 120.1 108.2 103.2 105.6 96.2 90.9 93.1 88.9 76.4 75.6 74.6 63.4 56.5 53.2 51.0 47.2 50.6 67.6 81.2 76.6 74.8 84.5 83.8 82.8 82.4 79.9 76.3 67.8 63.9 57.9 62.1 62.4 64.1 71.8 71.5 69.9 73.3 74.3 67.9 65.9 69.6 64.1 60.7 67.3 65.4 61.9 70.1 68.2 52.3 49.3 51.1 46.2 40.0 29.3 27.3 34.6 37.5 35.3 33.1 29.9 25.7 22.3 21.3 14.9 7.0 5.1 6.2 10.2 13.2 11.2 10.8 7.9 4.7 2.9 1.2 0.1 4.8 5.6 2.4 1.4 4.1 5.4 4.1 2.8 0.7 -9999.0 -9999.0 -9999.0 -9999.0 -9999.0 -9999.0 -9999.0 -9999.0 -9999.0 -9999.0 -9999.0 -9999.0 -9999.0 -9999.0 -9999.0
93.1 100.4 100.9 99.3 109.6 113.4 111.3 119.3 123.4 124.6 128.8 129.5 133.4 134.3 131.1 130.5 134.5 137.5 128.0 128.7 130.2 125.1 133.4 147.3 159.6 155.7 143.6 129.1 127.0 120.2 109.5 128.2 138.7 121.0 137.8 147.4 120.5 101.8 109.4 125.4 122.3 134.5 147.2 135.7 108.2 87.1 86.6 81.3 70.1 86.1 109.5 111.7 96.5 93.0 91.1 67.0 45.6 36.5 34.2 28.9 24.3 27.4 36.1 48.6 63.8 58.6 57.6 69.4 62.2 48.9 55.0 66.9 71.0 71.8 76.3 81.0 75.1 63.9 52.6 47.2 47.5 47.9 51.7 59.6 58.3 43.4 36.7 41.0 40.8 37.6 34.4 36.2 40.0 48.0 42.4 39.4 45.9 51.6 51.1 67.3 61.6 42.9 45.1 64.9 65.4 55.0 64.6 57.1 44.8 44.3 41.0 55.8 65.5 60.9 56.2 54.1 50.7 49.7 52.8 52.5 54.7 58.1 65.2 72.4 80.7 87.1 96.9 102.1 110.1 121.8 117.8 98.5 95.1 106.1 114.5 116.5 124.2 131.8 133.1 127.6 123.0 119.7 114.2 107.2 100.7 98.9 95.8 102.6 116.5 124.8 96.7 82.3 109.8 109.6 96.1 95.4 102.2 118.3 134.0 141.9 145.3 163.8 169.1 197.9 210.8 182.2 176.7 186.1 171.8 167.1 166.2 154.2 144.5 142.9 138.3 137.2 133.4 119.0 104.5 121.0 132.1 128.4 129.3 133.8 128.7 116.1 110.2 104.0 101.5 95.7 93.4 95.0 87.0 79.4 77.0 74.0 92.2 109.2 108.6 107.7 118.5 112.1 100.7 104.1 107.4 105.5 97.9 87.2 81.9 82.6 75.1 71.7 73.4 70.0 63.8 51.3 46.4 60.9 69.3 70.7 71.2 79.8 94.5 94.4 83.7 70.8 73.5 79.9 78.0 66.2 58.1 65.2 64.0 64.7 69.7 61.9 57.9 65.7 62.0 56.8 61.2 65.6 59.3 58.8 55.5 57.8 64.2 64.6 63.0 56.3 44.0 39.9 39.6 30.9 22.9 24.1 30.5 34.8 32.0 25.2 23.1 24.2 23.8 19.7 10.4 5.4 6.3 7.2 7.6 7.2 7.4 5.3 4.0 3.4 1.7 1.0 0.8 -9999.0 0.6 1.8 3.1 3.1 2.8 2.5 2.0 2.3 0.6 -9999.0 -9999.0 -9999.0 -9999.0 -9999.0 -9999.0 -9999.0 -9999.0 -9999.0 -9999.0 -9999.0 -9999.0 -9999.0
95.2 95.0 95.9 99.6 103.3 106.4 116.2 126.3 126.4 130.8 140.6 137.1 138.0 141.7 137.8 135.9 137.3 137.2 134.6 130.4 129.9 134.4 139.2 141.5 142.8 139.3 124.8 121.9 120.8 113.2 116.7 129.3 118.9 101.1 118.5 141.2 133.0 104.8 95.6 105.8 114.1 130.3 143.0 147.2 132.9 108.6 100.7 89.9 87.9 94.4 91.1 78.8 73.8 77.2 83.7 76.1 57.0 41.8 35.5 30.8 23.4 24.2 37.4 54.8 56.4 42.1 42.1 48.5 46.3 44.5 48.5 55.5 59.5 67.5 72.4 69.6 71.5 68.0 60.1 52.9 43.1 42.1 47.4 53.1 57.4 51.2 37.4 31.8 32.0 31.4 32.8 35.8 39.5 41.2 46.5 44.3 41.3 42.3 41.0 59.6 57.8 42.0 42.7 45.7 45.2 43.3 43.5 45.3 48.7 52.1 49.0 71.2 85.0 77.3 70.8 71.1 66.6 59.8 59.4 57.6 61.3 65.8 77.5 89.5 81.3 78.2 84.7 90.1 95.2 101.0 105.8 104.3 101.9 112.3 119.6 114.7 117.8 122.1 135.6 140.5 123.8 110.5 107.7 99.0 93.6 92.7 95.2 90.5 87.1 103.0 89.0 92.0 115.8 110.4 106.0 118.2 128.3 142.7 149.9 162.2 196.5 187.4 186.8 202.4 185.9 173.5 159.0 156.7 165.2 167.4 161.6 154.4 153.0 143.6 129.2 126.5 120.0 110.2 98.1 115.9 124.3 123.3 128.8 128.3 127.5 126.0 140.2 146.1 132.9 113.0 116.5 127.8 119.7 97.4 76.3 75.3 93.9 104.6 102.3 102.7 120.5 118.1 98.8 99.3 106.2 106.9 112.6 110.9 103.0 97.5 92.2 91.1 85.8 87.3 78.5 60.7 59.6 52.8 48.3 63.8 68.1 66.9 83.2 95.3 92.1 81.1 73.1 66.3 67.7 83.8 73.3 61.4 55.4 57.1 75.7 73.8 61.2 59.3 55.5 50.5 55.2 61.8 65.1 64.1 56.6 56.0 54.1 55.4 55.3 50.6 45.2 41.0 38.6 36.1 27.1 20.4 23.3 29.6 32.5 28.3 22.7 23.4 20.8 11.7 7.6 5.6 5.0 6.1 6.1 5.9 6.1 5.6 5.6 3.5 1.7 1.5 0.2 -9999.0 -9999.0 2.4 2.2 2.1 3.4 2.5 1.6 1.1 -9999.0 -9999.0 -9999.0 -9999.0 -9999.0 -9999.0 -9999.0 -9999.0 -9999.0 -9999.0 -9999.0 -9999.0 -9999.0 -9999.0
112.2 114.0 110.3 101.2 105.2 118.2 123.4 122.3 121.4 126.1 137.1 135.5 133.1 144.5 152.1 146.4 139.5 137.7 135.5 135.2 136.4 137.8 136.8 134.9 134.4 125.0 115.8 118.6 117.6 111.0 98.9 102.8 110.1 99.9 96.6 126.0 126.0 99.2 95.4 115.9 124.9 136.4 147.4 143.1 136.8 111.4 91.7 105.9 113.7 104.1 93.0 81.9 63.6 61.7 74.5 74.4 60.2 48.5 42.5 37.8 23.9 18.1 25.7 46.3 47.0 33.4 33.2 31.4 33.1 38.1 47.7 58.5 58.7 70.2 77.9 65.9 62.7 67.2 59.1 52.0 44.3 42.1 47.9 50.0 52.8 56.6 42.8 32.3 35.3 36.5 42.7 48.9 48.7 61.4 62.2 42.3 42.2 48.6 44.6 46.4 53.0 53.7 48.8 45.0 45.5 45.3 50.3 53.6 51.1 53.7 59.4 68.3 75.2 77.1 80.2 79.4 74.1 69.9 70.3 69.8 65.0 71.2 72.6 69.0 77.4 86.5 92.2 90.9 88.6 93.0 99.8 109.1 112.7 106.2 100.3 107.3 117.5 121.3 131.6 141.5 139.4 138.9 139.0 127.4 127.1 118.8 105.9 93.6 90.6 89.3 86.5 98.4 106.7 111.2 112.8 112.3 110.3 127.4 153.1 158.6 191.9 204.3 185.5 177.3 182.3 188.8 184.8 154.3 144.9 149.6 149.7 151.3 154.3 146.8 142.2 125.3 108.1 106.4 100.6 120.4 128.4 119.8 121.2 117.4 117.5 137.1 147.1 136.9 128.5 128.9 126.2 117.8 111.5 110.4 92.2 77.9 79.5 87.7 94.9 91.7 100.2 107.4 107.0 96.2 94.5 102.7 108.4 104.1 101.0 101.7 95.5 92.6 98.0 97.0 89.6 83.8 75.5 59.9 62.8 66.2 56.5 53.3 70.1 79.3 80.6 86.5 85.3 73.8 67.1 73.9 72.3 65.5 52.5 57.2 73.4 72.0 68.6 56.1 46.6 54.7 61.4 61.3 56.7 55.5 56.0 50.9 53.1 52.8 45.5 44.5 40.3 36.9 37.6 35.5 34.3 26.2 18.0 20.3 26.0 29.9 28.5 22.3 13.3 14.0 15.3 7.5 4.6 6.4 6.6 5.5 4.0 4.3 5.0 4.1 3.8 3.5 2.0 -0 -9999.0 -9999.0 -9999.0 1.5 2.5 1.0 0.2 -9999.0 -9999.0 -9999.0 -9999.0 -9999.0 -9999.0 -9999.0 -9999.0 -9999.0 -9999.0 -9999.0 -9999.0 -9999.0 -9999.0 -9999.0
116.6 129.0 124.9 114.6 114.6 113.6 114.8 118.8 123.1 134.2 138.5 133.1 133.1 135.7 141.1 137.0 138.8 140.5 141.9 156.5 154.6 147.7 143.8 132.9 131.9 130.0 117.5 111.2 109.8 107.8 101.1 93.8 98.4 107.1 108.9 131.8 120.6 89.1 98.5 133.9 144.5 149.2 141.0 137.8 153.9 134.7 131.5 119.1 91.0 76.8 72.2 81.5 81.3 72.8 67.9 58.5 62.4 66.7 52.1 35.4 23.2 20.0 24.8 29.4 29.8 35.6 35.0 32.2 47.9 50.1 42.2 59.3 70.0 79.6 82.9 66.0 58.3 57.8 60.2 55.5 47.0 36.7 42.4 52.7 54.1 53.4 40.7 30.5 42.6 54.8 57.9 62.9 62.1 62.9 67.6 49.0 36.7 43.5 45.1 46.1 46.9 60.5 66.6 54.0 58.1 53.6 53.9 60.0 57.5 55.0 53.4 56.0 60.3 63.9 69.1 71.1 72.7 75.0 77.2 73.8 65.0 62.5 65.1 72.9 77.5 79.3 83.5 93.2 101.1 100.0 98.7 106.0 117.0 125.6 123.1 132.5 135.8 129.4 128.7 135.6 128.8 117.0 119.3 119.2 119.4 121.5 120.9 117.1 111.3 89.9 69.4 80.7 89.9 91.2 101.9 114.3 119.9 126.6 132.4 149.2 179.8 188.9 170.8 171.4 194.6 189.3 174.1 154.2 141.7 142.7 141.5 133.5 127.5 135.7 142.4 130.1 123.9 114.6 101.2 109.2 119.8 117.2 114.3 109.8 116.0 134.1 132.1 125.6 121.1 117.5 105.5 98.5 104.1 104.3 101.8 92.4 87.8 89.8 86.7 83.3 88.1 97.7 105.5 102.2 87.7 87.7 101.9 98.0 93.6 96.4 93.0 88.6 94.6 89.4 82.5 78.0 70.7 59.3 49.2 49.7 47.7 54.5 66.1 79.2 78.5 76.9 69.5 67.0 66.0 64.0 68.7 72.5 61.0 60.0 64.4 70.7 70.1 58.1 51.8 51.4 53.3 47.9 52.7 58.7 53.9 46.9 49.6 50.0 42.3 37.7 33.2 33.2 33.8 28.5 29.1 30.9 21.6 18.5 21.5 23.4 21.8 19.7 20.1 20.8 12.6 4.1 3.8 5.5 6.9 5.5 2.7 3.5 3.2 1.8 1.5 4.1 3.8 0.1 -9999.0 -9999.0 -9999.0 -9999.0 0.3 1.4 0.1 -9999.0 -9999.0 -9999.0 -9999.0 -9999.0 -9999.0 -9999.0 -9999.0 -9999.0 -9999.0 -9999.0 -9999.0 -9999.0 -9999.0 -9999.0
123.5 129.2 123.1 115.8 114.8 121.8 126.6 124.3 128.7 147.8 144.5 130.9 127.2 127.0 132.5 129.0 135.1 132.0 137.1 146.0 136.6 136.7 138.3 137.9 138.0 131.8 126.7 120.2 125.4 127.7 119.7 111.7 100.5 91.2 87.4 118.6 130.5 96.2 113.0 154.1 141.9 132.4 131.9 125.9 147.1 149.2 138.2 114.3 87.6 77.0 76.1 78.5 68.1 68.4 71.0 53.1 46.5 50.3 46.0 29.1 15.2 22.7 39.9 40.2 33.4 38.1 42.5 46.2 43.5 49.3 51.4 47.4 52.0 65.1 76.9 68.0 60.3 57.7 56.5 56.5 47.5 35.4 46.7 53.6 60.1 55.7 38.8 29.0 47.9 64.4 67.3 71.1 74.3 75.8 59.9 48.8 64.8 67.6 54.7 47.2 49.0 69.4 90.6 76.1 61.0 55.9 55.7 58.4 63.1 66.2 63.0 58.1 57.3 57.9 61.5 67.6 73.9 85.4 87.3 76.5 69.7 68.1 70.2 72.3 73.4 80.0 82.8 85.1 93.6 103.7 104.7 102.6 110.9 122.9 127.4 122.9 122.2 123.5 117.4 110.4 108.2 113.5 108.3 98.0 93.6 97.0 106.0 107.4 105.7 102.0 92.2 82.8 75.7 88.5 105.3 114.7 119.1 127.2 152.3 171.7 174.1 174.5 162.1 162.1 180.8 177.1 177.5 167.3 163.8 153.8 152.1 155.4 138.9 134.3 138.2 134.5 129.5 121.4 105.9 101.7 109.6 110.2 110.7 109.3 123.5 131.6 133.4 133.0 126.8 115.4 97.9 92.8 91.7 94.1 93.4 84.1 76.3 78.3 81.7 85.8 89.8 98.2 111.6 111.6 101.8 93.1 95.3 93.2 92.0 97.0 87.4 80.3 84.8 86.2 76.5 74.0 72.8 66.3 63.1 63.0 49.7 51.6 62.5 74.9 87.3 87.8 83.3 78.5 67.4 54.5 53.3 57.4 61.0 58.5 54.1 64.2 71.6 71.2 65.3 58.4 47.4 40.9 53.6 52.5 45.9 40.7 43.6 49.4 46.9 37.7 30.5 28.1 25.1 22.5 24.9 27.6 20.0 13.8 17.3 23.0 21.8 21.0 21.6 19.1 10.4 3.2 2.4 5.0 5.9 4.5 4.1 4.6 5.0 4.9 3.5 3.1 2.1 -9999.0 -9999.0 -9999.0 -9999.0 -9999.0 -9999.0 -9999.0 -9999.0 -9999.0 -9999.0 -9999.0 -9999.0 -9999.0 -9999.0 -9999.0 -9999.0 -9999.0 -9999.0 -9999.0 -9999.0 -9999.0 -9999.0 -9999.0
113.7 110.7 116.9 126.6 128.0 133.1 136.0 129.9 126.6 137.9 130.4 116.3 124.4 129.2 130.8 123.4 125.8 123.5 129.9 133.4 124.0 127.4 125.1 138.4 145.5 133.0 124.5 123.7 125.7 123.3 123.5 116.5 113.0 115.9 95.9 102.2 114.9 93.1 104.9 131.1 126.4 129.0 133.5 121.5 120.3 125.4 129.2 116.9 93.4 80.3 65.5 66.9 61.8 46.0 42.8 53.1 57.7 54.0 54.9 32.4 16.5 39.1 52.4 50.8 51.7 53.2 57.2 55.3 48.2 49.8 55.8 54.2 50.9 59.8 68.6 63.5 61.5 53.7 47.7 51.8 53.3 42.4 43.9 50.9 54.5 44.7 32.5 30.7 35.1 39.3 47.4 67.9 82.2 90.6 83.3 89.5 102.2 78.8 53.4 47.3 61.4 73.7 87.9 84.0 70.4 65.3 61.7 58.8 58.9 66.6 71.2 75.3 67.1 65.2 75.9 72.4 73.9 84.7 89.6 84.5 82.1 79.0 77.3 79.1 79.0 79.9 86.4 88.9 89.8 96.1 105.5 111.1 112.8 117.0 113.2 107.7 107.0 107.3 107.2 101.1 95.5 99.5 95.7 91.0 89.4 87.7 92.7 106.9 118.2 99.7 88.7 86.4 69.4 95.1 115.2 110.1 113.0 118.8 134.2 157.2 176.5 183.3 170.0 154.1 166.4 169.5 158.3 155.7 164.7 169.1 167.7 166.8 156.3 144.7 129.2 116.0 118.5 117.7 101.4 96.1 104.2 105.2 116.7 123.4 124.1 126.3 126.4 126.3 118.9 113.3 109.8 100.1 98.4 94.3 78.9 77.4 78.1 71.2 75.6 84.2 87.5 87.4 94.5 100.4 93.4 84.4 86.7 95.2 89.2 86.4 80.2 71.9 74.4 82.5 83.6 84.8 81.4 69.8 60.2 60.5 54.6 48.7 51.9 61.5 77.3 81.1 71.1 64.5 61.7 60.8 63.0 53.5 55.9 48.5 43.1 58.2 69.3 67.5 65.3 57.8 51.6 48.4 53.7 54.8 46.1 43.9 42.1 46.6 43.9 36.1 32.7 27.1 23.1 21.1 20.4 21.4 22.1 16.6 14.5 17.9 21.3 21.2 17.1 14.4 8.5 2.9 1.8 4.1 5.7 4.6 4.8 5.4 5.3 4.5 4.0 2.8 1.4 1.1 3.8 2.0 -9999.0 -9999.0 -9999.0 -9999.0 -9999.0 -9999.0 -9999.0 -9999.0 -9999.0 -9999.0 -9999.0 -9999.0 -9999.0 -9999.0 -9999.0 -9999.0 -9999.0 -9999.0 -9999.0 -9999.0
106.2 116.2 123.9 135.1 143.2 147.7 138.8 127.8 123.4 133.2 131.8 117.5 119.5 135.9 141.5 133.0 123.4 120.3 125.9 127.8 120.4 119.5 120.0 136.9 159.2 147.3 132.4 126.6 120.3 117.6 109.2 102.3 113.1 119.1 103.2 87.9 92.1 97.1 120.7 138.6 125.2 129.7 126.1 112.3 116.7 124.1 131.3 118.1 89.1 74.0 62.9 60.2 48.5 35.3 38.8 39.2 31.5 27.3 31.1 25.1 18.7 28.4 34.2 45.5 55.4 64.0 71.7 67.3 68.0 68.5 64.5 58.3 57.2 59.4 59.9 61.3 68.7 67.6 55.3 47.5 45.4 40.6 42.1 46.3 46.3 44.8 34.8 28.8 31.9 40.6 54.3 76.9 90.7 94.9 113.6 127.2 100.5 74.9 61.1 49.5 51.1 56.1 68.0 76.2 78.1 77.0 68.4 70.8 67.2 60.4 70.4 79.4 70.6 67.3 78.3 77.0 80.1 82.3 85.5 90.5 94.4 90.3 85.8 85.1 81.9 84.4 89.1 96.9 100.1 98.2 106.3 115.7 126.1 124.5 113.9 107.2 100.8 97.4 95.7 95.3 89.5 90.2 95.1 89.6 77.2 74.8 91.6 123.7 115.9 87.8 78.0 73.7 82.4 103.1 109.2 125.0 144.2 135.2 139.4 160.8 171.3 173.4 168.7 159.4 170.9 177.8 169.5 155.8 147.8 155.6 156.8 156.3 152.3 132.7 133.1 137.4 132.5 124.4 98.9 91.7 94.7 109.1 117.5 111.2 112.3 114.6 118.9 119.6 114.3 110.8 108.7 108.5 105.2 93.5 84.5 83.1 76.4 65.8 68.0 74.0 77.6 81.9 98.9 113.5 108.8 94.9 88.0 88.0 88.2 90.9 78.2 68.5 73.1 73.3 77.6 84.8 77.3 70.2 58.1 54.1 61.8 49.1 46.4 59.7 69.5 81.8 84.2 80.6 76.1 73.2 63.8 50.3 49.7 47.2 47.9 62.4 70.0 62.2 54.3 55.5 53.5 49.3 46.4 41.1 45.7 45.9 42.5 45.1 40.5 35.2 32.0 29.5 26.1 22.0 18.5 19.9 22.8 17.0 12.9 18.0 20.2 17.3 11.2 6.3 5.4 3.0 1.0 3.3 4.0 3.4 4.9 5.8 6.0 4.9 3.6 2.1 1.0 1.4 3.2 3.1 -9999.0 -9999.0 -9999.0 -9999.0 -9999.0 -9999.0 -9999.0 -9999.0 -9999.0 -9999.0 -9999.0 -9999.0 -9999.0 -9999.0 -9999.0 -9999.0 -9999.0 -9999.0 -9999.0 -9999.0
106.2 115.3 127.1 129.1 134.5 150.4 148.3 132.8 122.9 130.5 130.2 119.7 127.4 141.7 148.6 143.7 129.2 128.7 126.6 123.6 119.6 114.3 115.4 129.9 143.7 142.9 147.2 147.3 134.7 120.3 108.3 102.5 101.1 95.5 91.5 81.8 90.2 110.4 121.5 131.3 123.6 121.0 116.4 121.6 117.8 132.1 132.1 98.0 73.3 67.4 61.8 48.2 43.7 43.1 40.0 40.1 48.5 37.9 22.1 17.4 20.2 42.7 56.5 52.0 44.9 49.5 61.8 71.9 80.1 78.2 74.7 72.3 61.3 54.7 55.8 52.1 50.3 53.4 53.6 56.9 45.3 40.1 34.5 27.9 30.0 30.2 31.8 42.0 51.2 45.5 50.7 88.9 95.5 96.0 103.6 109.5 91.7 70.5 68.0 61.4 56.7 54.7 60.8 67.1 72.6 74.9 73.3 76.5 70.4 62.3 76.4 83.7 74.6 74.5 83.6 87.1 79.3 83.4 90.1 96.3 99.9 101.2 94.4 86.0 87.5 89.1 91.2 101.3 109.4 116.9 125.2 132.2 145.8 145.3 138.2 127.8 114.9 100.6 94.0 95.3 89.1 86.0 89.3 94.3 84.6 73.3 74.5 97.3 116.7 90.7 79.8 101.1 116.9 111.8 112.5 114.5 124.3 129.2 145.5 180.0 175.8 167.5 159.5 157.4 158.7 164.6 175.6 164.5 145.1 144.7 145.3 136.6 145.4 149.7 144.3 135.8 137.1 127.2 104.5 89.4 89.8 106.8 106.6 105.4 109.0 108.6 114.1 118.2 116.9 112.4 108.4 102.1 103.5 102.7 94.0 85.8 77.0 66.2 62.7 74.5 83.6 81.4 91.7 107.2 105.1 95.0 84.2 75.0 79.7 78.4 69.6 69.3 73.3 65.4 68.0 70.5 69.9 73.9 71.3 63.9 51.8 40.3 57.8 79.0 80.8 86.4 81.4 70.1 70.1 70.7 67.9 57.5 47.7 49.9 44.1 51.8 66.6 65.4 57.4 48.8 44.2 43.2 36.9 31.6 39.9 43.8 33.7 35.2 38.0 34.5 31.2 29.8 27.4 22.1 21.5 23.2 23.5 15.4 10.1 13.2 14.3 9.9 6.4 5.9 6.0 3.6 1.3 1.4 2.5 3.0 2.3 1.4 3.7 4.0 1.7 0.8 0.6 0.6 1.0 -9999.0 -9999.0 -9999.0 -9999.0 -9999.0 -9999.0 -9999.0 -9999.0 -9999.0 -9999.0 -9999.0 -9999.0 -9999.0 -9999.0 -9999.0 -9999.0 -9999.0 -9999.0 -9999.0 -9999.0 -9999.0
112.2 120.9 123.1 119.3 119.0 130.6 136.5 122.5 110.0 113.8 119.9 127.9 134.5 137.1 146.2 138.1 119.6 109.2 112.6 126.4 121.6 108.7 107.8 121.6 131.3 130.7 132.1 141.6 131.6 111.3 112.1 116.9 103.7 96.9 94.2 80.3 78.9 92.3 105.2 120.4 123.2 115.6 101.4 116.7 126.8 142.0 136.2 127.3 107.1 93.6 85.6 59.4 56.0 64.4 63.3 53.1 50.7 46.3 29.6 25.0 36.9 58.2 67.0 77.7 75.1 58.6 65.2 70.2 84.2 77.8 64.2 63.1 49.0 48.3 52.1 47.6 43.0 42.9 33.2 31.8 43.9 38.9 28.5 28.7 29.3 28.7 44.7 77.3 86.3 80.1 57.9 72.1 92.4 77.9 77.9 85.8 82.3 75.6 72.7 71.9 66.9 63.3 58.5 60.0 66.4 79.4 88.8 83.0 72.4 69.3 76.0 84.9 87.5 91.1 99.4 98.3 89.2 87.1 95.7 102.6 112.1 113.0 101.2 95.7 92.1 94.7 100.7 110.1 135.0 152.0 157.0 159.0 162.5 158.1 156.7 139.2 114.1 105.7 100.2 90.8 86.0 92.4 88.5 82.5 94.0 103.1 89.3 77.0 65.0 64.6 85.0 100.4 95.0 90.1 98.2 103.0 109.0 126.4 144.7 179.7 185.0 158.2 154.9 159.8 143.3 139.5 154.3 165.0 155.2 138.6 144.2 135.7 130.6 145.5 140.5 128.8 136.7 140.3 131.3 107.3 89.1 99.7 102.1 101.5 104.2 105.8 109.2 112.7 117.3 115.8 113.1 104.9 97.7 91.5 82.9 76.0 72.8 66.8 60.8 64.1 70.7 77.3 81.6 94.8 106.0 96.5 81.9 80.6 83.9 77.2 66.2 68.1 67.7 67.4 73.4 70.8 70.2 61.7 59.1 61.3 52.2 39.0 51.4 69.8 76.2 81.4 77.5 64.0 58.7 66.7 64.6 58.7 54.9 43.6 39.2 51.0 56.9 60.2 61.4 60.4 59.2 56.9 51.5 47.9 47.4 40.2 28.6 34.9 38.5 32.8 30.0 29.1 25.3 20.1 20.9 22.2 21.7 14.4 9.8 10.5 7.4 5.7 6.1 5.3 9.1 7.7 2.2 1.0 1.9 2.8 3.7 2.4 1.0 1.5 1.5 0.3 -9999.0 -9999.0 -9999.0 -9999.0 -9999.0 -9999.0 -9999.0 -9999.0 -9999.0 -9999.0 -9999.0 -9999.0 -9999.0 -9999.0 -9999.0 -9999.0 -9999.0 -9999.0 -9999.0 -9999.0 -9999.0 -9999.0 -9999.0 -9999.0
122.2 118.1 121.7 116.0 109.8 117.3 125.7 119.3 106.3 116.3 127.8 131.8 127.3 123.0 137.6 141.7 132.6 114.0 107.5 114.2 115.2 108.9 113.0 119.6 128.6 126.2 127.7 135.4 141.9 129.8 108.7 102.8 94.8 90.1 106.6 93.8 72.7 85.2 88.9 92.8 112.5 108.4 89.8 96.9 117.2 139.4 142.6 136.3 117.4 107.2 96.6 73.8 51.2 49.0 51.0 41.9 35.7 26.5 17.3 34.9 55.8 59.3 56.4 54.3 70.7 81.3 88.3 92.4 89.5 71.9 57.0 48.4 41.1 54.6 56.7 51.8 45.4 37.3 30.0 27.7 32.1 42.8 37.4 28.4 31.1 40.6 53.6 64.5 88.7 102.8 65.7 41.1 48.5 54.2 59.4 69.2 78.0 93.4 103.8 96.9 84.9 73.3 64.2 62.9 66.6 80.7 88.5 81.7 78.2 85.0 83.2 84.9 88.8 95.9 109.5 103.9 98.5 101.3 107.4 115.4 118.0 114.1 112.2 112.5 108.4 101.2 104.3 125.6 137.3 148.5 158.9 159.1 154.0 149.6 154.2 139.3 124.6 112.8 118.1 117.5 90.3 86.4 92.2 82.3 89.5 99.9 106.3 102.2 75.2 70.5 88.0 98.6 112.2 125.2 116.6 121.7 148.5 152.1 156.1 181.3 177.6 161.7 140.9 134.6 138.6 143.8 164.7 162.0 150.0 151.3 142.9 122.5 120.8 131.6 139.8 142.1 139.6 136.9 131.4 118.5 91.7 85.6 98.7 98.6 98.3 100.8 105.2 108.6 114.9 126.0 124.0 108.7 97.5 93.7 87.3 80.4 83.1 75.8 62.7 58.8 65.0 67.8 78.4 94.4 99.3 95.6 92.3 80.4 77.2 77.2 71.8 67.4 63.8 62.3 67.0 69.5 70.5 62.8 58.1 66.3 65.9 45.7 48.4 69.7 79.2 75.1 68.6 58.2 59.9 62.2 55.2 59.2 58.0 47.7 43.6 53.3 55.8 54.7 52.2 53.6 52.0 48.1 48.4 49.3 43.3 36.7 32.7 32.3 28.1 24.1 23.8 23.0 22.4 21.6 21.9 23.7 21.2 12.7 8.3 7.9 6.1 5.9 6.0 4.6 3.4 3.0 2.2 1.3 1.6 2.3 1.8 1.2 1.1 2.8 2.6 -9999.0 -9999.0 -9999.0 -9999.0 -9999.0 -9999.0 -9999.0 -9999.0 -9999.0 -9999.0 -9999.0 -9999.0 -9999.0 -9999.0 -9999.0 -9999.0 -9999.0 -9999.0 -9999.0 -9999.0 -9999.0 -9999.0 -9999.0 -9999.0 -9999.0
